2047,2047,2047,2047,2047,2047,2047,2047,2047,2047,2047,2047,2047,2047,2047,2047,2047,2047,2047,2047,2047,2047,2047,2047,2047,2047,2047,2047,2047,2047,2047,2047,2047,2047,2047,2047,2047,2047,2047,2047,2047,2047,2047,2047,2047,2047,1013,1013,1013,1013,1013,1012,1012,1012,1012,1012,1012,1012,1012,1012,2047,2047,2047,2047,2047,2047,2047,2047,2047,2047,2047,2047,2047,2047,2047,2047,2047,2047,2047,2047,2047,2047,2047,2047,2047,2047,2047,2047,2047,2047,2047,2047,2047,2047,2047,2047,2047,2047,2047,2047,2047,2047,2047,2047,2047,2047,2047,2047,2047,2047,2047,2047,2047,2047,2047,2047,712,711,705,701,701,700,699,698,698,697,696,696,695,694,694,693,693,692,692,691,690,689,689,689,688,688,688,687,686,686,685,685,684,684,684,684,684,684,683,683,683,683,683,682,682,682,681,680,681,681,680,679,681,680,681,679,679,676,674,673,673,672,672,671,670,670,670,669,669,669,669,669,669,669,669,669,669,668,668,668,669,668,669,668,669,669,669,669,669,669,669,669,669,669,669,670,670,670,669,670,670,670,670,669,672,672,673,673,673,673,673,673,673,673,673,674,674,674,674,674,674,675,675,675,675,675,675,674,674,674,674,674,675,675,676,677,677,677,677,677,677,678,678,678,679,679,679,680,679,679,679,680,680,680,681,681,681,682,681,681,681,681,681,681,681,681,682,682,682,682,682,682,682,682,682,682,682,683,684,684,684,685,685,685,685,686,687,688,689,689,689,689,690,691,692,693,693,694,698,697,705,705,705,706,706,707,708,708,708,708,708,709,709,710,710,711,712,714,714,715,715,717,720,720,721,721,721,722,723,723,725,727,2047,2047,2047,2047,2047,2047,2047,2047,2047,2047,2047,2047,758,758,758,758,757,757,756,755,754,753,752,751,750,749,748,748,747,746,746,746,746,746,746,746,745,746,746,746,746,747,748,748,749,749,749,749,749,749,750,751,752,752,752,753,753,998,1030,1030,1030,1030,1030,1030,1030,1029,1029,1029,1029,1029,1028,1028,1029,1029,1029,1029,1029,1029,1029,1029,1028,1028,1028,1028,1027,1027,1027,1027,1026,1026,1027,1027,1026,1026,1026,1026,1026,1027,1026,1026,1027,1027,1028,1028,1027,1027,1026,1025,1024,1023,1022,1022,1022,1022,2047,2047,2047,2047,2047,2047,2047,2047,2047,2047,2047,2047,2047,1008,1008,1008,1008,1008,1009,1009,1009,2047,2047,2047,2047,2047,2047,2047,2047,2047,2047,2047,2047,2047,2047,2047,2047,2047,2047,2047,2047,2047,2047,2047,2047,2047,2047,2047,2047,2047,2047,2047,2047,2047,2047,2047,2047,2047,2047,2047,2047,2047,2047,2047,2047,2047,2047,1026,1026,1026,1026,1026,1025,1026,1025,1026,1025,1026,1025,1025,1026,1026,1026,1026,1026,1024,1024,1024,1024,1023,1023,1024,1024,1024,1025,1025,1026,1025,1025,1024,1025,1024,1023,1022,1022,1022,1023,1023,1022,1022,1022,1023,1022,1022,1023,1022,1022,1022,1022,1022,1022,1022,1022,1022,1022,1022,1022,1021,1021,1021,1021,1021,1021,1022,1022,1021,1021,1020,1019,1018,1018,1018,1019,1020,1020,1020,1020,1020,1020,1020,1019,1019,1020,1020,1020,1020,1020,1021,2047,2047,2047,2047,2047,2047,2047,2047,2047,2047,2047,2047,2047,2047,2047,2047,2047,2047,2047,2047
2047,2047,2047,2047,2047,2047,2047,2047,2047,2047,2047,2047,2047,2047,2047,2047,2047,2047,2047,2047,2047,2047,2047,2047,2047,2047,2047,2047,2047,2047,2047,2047,2047,2047,2047,2047,2047,2047,2047,2047,2047,2047,2047,2047,2047,2047,2047,1013,1013,1013,1014,1013,1013,1013,1013,1013,1012,1012,1012,1012,1012,1012,2047,2047,2047,2047,2047,2047,2047,2047,2047,2047,2047,2047,2047,2047,2047,2047,2047,2047,2047,2047,2047,2047,2047,2047,2047,2047,2047,2047,2047,2047,2047,2047,2047,2047,2047,2047,2047,2047,2047,2047,2047,2047,2047,2047,2047,2047,2047,2047,2047,2047,2047,711,709,708,707,705,701,700,698,698,697,696,696,695,694,693,692,692,691,691,691,690,690,689,689,688,688,687,686,686,685,685,685,684,684,684,684,684,683,683,683,682,682,682,681,681,681,681,681,681,680,680,680,680,680,679,676,674,673,674,674,673,673,672,672,671,670,670,669,669,669,669,669,668,668,668,668,667,667,667,667,667,667,667,668,668,668,668,668,668,668,668,668,669,669,669,669,669,669,669,669,669,669,669,669,669,669,669,670,670,670,671,671,671,672,672,672,672,672,672,672,672,672,672,672,673,673,673,673,673,673,673,673,673,674,674,674,674,674,674,675,675,675,676,676,677,677,677,678,678,678,679,679,678,678,679,679,680,680,679,680,681,681,681,681,680,680,680,680,680,681,681,681,681,681,681,681,681,681,681,682,683,684,684,685,685,686,686,686,687,688,688,689,689,690,691,691,692,693,694,697,702,702,703,704,704,705,705,705,705,706,706,707,708,708,708,709,710,710,711,713,714,715,716,717,717,719,719,719,720,720,2047,2047,2047,2047,2047,2047,2047,2047,2047,2047,2047,2047,2047,2047,2047,760,760,760,760,760,760,759,759,758,757,756,754,753,752,751,751,750,749,749,749,749,749,749,749,749,749,749,749,749,750,750,750,751,751,752,752,752,753,753,753,754,754,755,755,756,1029,1030,1030,1030,1030,1030,1030,1030,1030,1030,1029,1029,1029,1029,1029,1029,1029,1028,1029,1029,1028,1028,1028,1028,1028,1028,1027,1028,1028,1027,1027,1027,1027,1027,1027,1027,1027,1026,1026,1026,1026,1026,1026,1026,1026,1026,1026,1026,1027,1026,1026,1026,1025,1025,1024,1024,1024,1024,1023,1023,1022,1022,2047,2047,2047,2047,2047,2047,2047,2047,2047,2047,1009,1008,1008,1007,1007,1007,1006,1006,2047,2047,2047,2047,2047,2047,2047,2047,2047,2047,2047,2047,2047,2047,2047,2047,2047,2047,2047,2047,2047,2047,2047,2047,2047,2047,2047,2047,2047,2047,2047,2047,2047,2047,2047,2047,2047,2047,2047,2047,2047,2047,2047,2047,1029,1029,1026,1026,1026,1026,1026,1026,1026,1026,1026,1025,1025,1025,1025,1025,1025,1025,1025,1026,1026,1026,1025,1025,1025,1025,1025,1025,1025,1025,1026,1025,1025,1024,1022,1025,1022,1022,1022,1022,1022,1022,1023,1022,1023,1022,1023,1022,1022,1022,1022,1022,1022,1022,1022,1022,1022,1022,1022,1022,1022,1022,1022,1021,1021,1021,1021,1021,1022,1021,1021,1021,1020,1019,1019,1019,1019,1020,1020,1020,1020,1020,1020,1021,1020,1020,1020,1021,1022,1022,1021,2047,2047,2047,2047,2047,2047,2047,2047,2047,2047,2047,2047,2047,2047,2047,2047,2047,2047,2047,2047,2047,2047
2047,2047,2047,2047,2047,2047,2047,2047,2047,2047,2047,2047,2047,2047,2047,2047,2047,2047,2047,2047,2047,2047,2047,2047,2047,2047,2047,2047,2047,2047,2047,2047,2047,2047,2047,2047,2047,2047,2047,2047,2047,2047,2047,2047,2047,2047,2047,1013,1013,1013,1013,1013,1013,1012,1012,1012,1012,1012,1012,1012,1012,1012,2047,2047,2047,2047,2047,2047,2047,2047,2047,2047,2047,2047,2047,2047,2047,2047,2047,2047,2047,2047,2047,2047,2047,2047,2047,2047,2047,2047,2047,2047,2047,2047,2047,2047,2047,2047,2047,2047,2047,2047,2047,2047,2047,2047,2047,2047,2047,2047,2047,2047,2047,710,709,707,705,703,701,699,698,697,696,696,695,694,693,692,691,691,690,690,690,689,689,689,688,688,687,686,686,685,685,685,684,684,684,684,683,683,683,682,682,682,681,681,681,680,681,681,681,681,681,680,681,681,680,679,677,676,676,676,676,675,675,674,675,673,671,670,669,669,669,669,669,669,668,668,668,668,667,667,667,667,667,667,667,667,668,667,668,668,668,668,668,668,668,668,668,668,668,669,669,668,668,668,668,669,668,668,669,669,670,670,670,670,671,671,671,671,671,671,671,671,671,672,672,672,672,672,672,672,673,672,672,673,673,673,673,673,673,674,674,674,674,675,675,676,676,677,677,677,677,678,678,678,678,678,678,678,679,679,680,680,680,680,680,680,680,680,680,680,680,680,681,681,681,681,681,681,681,681,682,682,684,684,685,685,686,686,686,687,687,688,689,690,691,692,692,693,694,697,700,702,702,703,704,703,704,704,704,705,705,706,706,707,708,708,708,709,709,709,712,713,715,716,716,717,718,718,719,720,720,720,2047,2047,2047,2047,2047,2047,2047,2047,2047,2047,2047,2047,2047,2047,2047,761,760,760,760,760,759,758,758,757,755,754,753,752,751,750,749,749,749,748,748,748,748,748,748,749,749,749,749,749,749,750,750,751,751,751,752,752,753,753,754,754,755,755,755,755,1030,1030,1030,1030,1030,1030,1030,1030,1029,1029,1029,1029,1029,1029,1029,1029,1029,1029,1028,1028,1028,1028,1027,1028,1028,1027,1028,1028,1027,1027,1027,1027,1026,1027,1027,1027,1026,1026,1026,1026,1026,1026,1026,1026,1026,1026,1026,1027,1026,1026,1025,1025,1025,1024,1024,1024,1024,1024,2047,2047,2047,2047,2047,2047,2047,2047,2047,2047,2047,2047,1010,1009,1008,1008,1007,1008,1007,1006,1004,2047,2047,2047,2047,2047,2047,2047,2047,2047,2047,2047,2047,2047,2047,2047,2047,2047,2047,2047,2047,2047,2047,2047,2047,2047,2047,2047,2047,2047,2047,2047,2047,2047,2047,2047,2047,2047,2047,2047,2047,2047,2047,2047,2047,1027,1027,1026,1026,1026,1026,1026,1026,1026,1026,1026,1026,1026,1025,1025,1025,1025,1025,1025,1025,1025,1026,1025,1025,1025,1025,1025,1025,1025,1025,1025,1025,1025,1025,1024,1025,1024,1022,1022,1022,1022,1022,1023,1022,1022,1022,1022,1023,1022,1022,1022,1022,1022,1022,1022,1022,1022,1022,1022,1022,1022,1022,1022,1022,1021,1021,1021,1021,1022,1021,1021,1021,1021,1020,1019,1020,1020,1020,1020,1020,1020,1019,1020,1021,1020,1021,1021,1021,2047,1022,2047,2047,2047,2047,2047,2047,2047,2047,2047,2047,2047,2047,2047,2047,2047,2047,2047,2047,2047,2047,2047,2047,2047
2047,2047,2047,2047,2047,2047,2047,2047,2047,2047,2047,2047,2047,2047,2047,2047,2047,2047,2047,2047,2047,2047,2047,2047,2047,2047,2047,2047,2047,2047,2047,2047,2047,2047,2047,2047,2047,2047,2047,2047,2047,2047,2047,2047,2047,2047,1013,1013,1013,1013,1013,1013,1012,1012,1012,1012,1012,1011,1011,1011,1012,1011,2047,2047,2047,2047,2047,2047,2047,2047,2047,2047,2047,2047,2047,2047,2047,2047,2047,2047,2047,2047,2047,2047,2047,2047,2047,2047,2047,2047,2047,2047,2047,2047,2047,2047,2047,2047,2047,2047,2047,2047,2047,2047,2047,2047,2047,2047,2047,2047,2047,2047,2047,709,707,705,704,702,700,699,697,696,696,695,694,693,693,692,691,690,690,689,689,689,689,688,687,687,686,686,685,685,685,684,684,684,684,684,683,683,682,682,682,681,681,681,681,680,681,680,681,681,681,680,681,680,680,679,678,677,677,676,676,676,676,676,676,676,675,672,670,670,670,669,669,669,669,669,668,668,668,668,667,667,667,667,667,667,667,667,667,667,667,667,667,667,667,667,667,668,668,668,668,668,667,668,668,668,668,668,669,669,669,669,670,670,670,670,671,671,671,670,671,671,671,671,671,671,671,671,672,672,672,672,672,672,672,672,672,672,672,673,673,674,674,674,674,675,675,676,676,676,677,677,677,677,677,678,677,678,678,678,679,680,680,680,680,680,680,680,680,680,680,680,680,680,680,681,681,681,681,681,682,682,683,684,685,685,685,686,686,687,688,688,689,691,692,693,693,694,696,699,701,702,702,703,703,703,703,704,704,704,705,705,705,706,707,707,708,708,708,709,710,711,713,714,715,715,717,718,718,719,720,720,2047,2047,2047,2047,2047,2047,2047,2047,2047,2047,2047,2047,2047,2047,2047,760,760,760,760,759,759,758,757,756,754,753,753,752,751,750,749,749,748,748,748,748,747,748,748,748,749,749,749,749,749,750,750,750,750,751,751,752,753,753,754,754,754,754,754,754,1030,1030,1030,1030,1030,1030,1030,1029,1029,1029,1029,1029,1029,1029,1029,1029,1029,1029,1029,1029,1029,1029,1028,1028,1028,1027,1028,1028,1027,1027,1027,1026,1026,1027,1026,1027,1027,1026,1026,1026,1026,1026,1026,1026,1026,1026,1026,1026,1026,1026,1025,1025,1025,1025,1024,1024,1023,1024,2047,2047,2047,2047,2047,2047,2047,2047,2047,2047,2047,1010,1010,1009,1009,1008,1007,1008,1007,1005,2047,2047,2047,2047,2047,2047,2047,2047,2047,2047,2047,2047,2047,2047,2047,2047,2047,2047,2047,2047,2047,2047,2047,2047,2047,2047,2047,2047,2047,2047,2047,2047,2047,2047,2047,2047,2047,2047,2047,2047,2047,2047,2047,2047,1027,1027,1027,1026,1026,1026,1026,1026,1026,1026,1026,1026,1026,1026,1026,1026,1026,1026,1026,1026,1026,1026,1026,1025,1025,1025,1025,1025,1025,1025,1025,1025,1024,1024,1024,1023,1024,1022,1022,1022,1022,1022,1022,1023,1022,1023,1022,1022,1023,1022,1023,1022,1023,1022,1022,1022,1022,1022,1022,1022,1022,1022,1022,1022,1022,1021,1021,1021,1021,1022,1021,1021,1021,1021,1020,1020,1020,1020,1020,1020,1020,1020,1019,1020,1021,1020,1021,1021,1022,2047,2047,2047,2047,2047,2047,2047,2047,2047,2047,2047,2047,2047,2047,2047,2047,2047,2047,2047,2047,2047,2047,2047,2047,2047
2047,2047,2047,2047,2047,2047,2047,2047,2047,2047,2047,2047,2047,2047,2047,2047,2047,2047,2047,2047,2047,2047,2047,2047,2047,2047,2047,2047,2047,2047,2047,2047,2047,2047,2047,2047,2047,2047,2047,2047,2047,2047,2047,2047,2047,2047,1014,1013,1013,1012,1012,1012,1011,1011,1011,1012,1011,1011,1011,1012,1012,1012,2047,2047,2047,2047,2047,2047,2047,2047,2047,2047,2047,2047,2047,2047,2047,2047,2047,2047,2047,2047,2047,2047,2047,2047,2047,2047,2047,2047,2047,2047,2047,2047,2047,2047,2047,2047,2047,2047,2047,2047,2047,2047,2047,2047,2047,2047,2047,2047,2047,708,708,708,706,703,702,701,699,698,697,695,695,694,693,693,692,691,690,690,689,689,689,688,688,687,687,686,686,685,685,685,685,684,684,683,684,683,683,683,682,682,681,681,681,681,681,680,680,680,680,681,681,680,681,680,680,679,679,678,677,677,677,677,677,677,677,676,676,675,671,670,670,670,669,669,669,669,668,668,668,668,668,667,667,667,667,667,667,666,667,667,666,666,667,666,667,667,667,667,668,668,667,667,667,667,667,668,667,667,668,668,669,669,669,669,670,670,670,670,670,670,670,670,670,670,670,671,670,671,671,671,671,671,671,671,672,672,672,672,672,672,672,673,673,673,673,674,675,675,675,675,676,676,676,676,676,677,677,677,677,677,678,679,679,679,680,680,680,680,680,680,680,680,680,680,680,680,681,681,681,681,682,683,684,684,685,685,685,686,686,687,688,689,691,693,694,696,695,696,697,699,701,701,701,702,702,702,702,703,702,703,704,704,704,705,706,706,707,707,708,708,709,711,712,713,714,715,716,717,717,718,718,719,2047,2047,2047,2047,2047,2047,2047,2047,2047,2047,2047,2047,2047,2047,2047,760,760,759,760,760,759,758,756,755,754,753,752,752,751,750,749,748,748,747,748,748,747,748,748,748,748,749,749,749,749,749,750,750,750,750,751,752,752,753,753,753,754,754,754,754,1030,1030,1030,1030,1030,1030,1029,1029,1029,1029,1029,1029,1029,1029,1029,1029,1029,1029,1029,1029,1029,1029,1028,1028,1028,1027,1028,1028,1027,1027,1027,1026,1027,1027,1027,1027,1027,1027,1027,1027,1026,1026,1026,1026,1026,1026,1026,1026,1026,1025,1025,1024,1025,1025,1025,1024,1023,1023,2047,2047,2047,2047,2047,2047,2047,2047,2047,2047,2047,1011,1010,1009,1009,1008,1007,1008,1007,1005,2047,2047,2047,2047,2047,2047,2047,2047,2047,2047,2047,2047,2047,2047,2047,2047,2047,2047,2047,2047,2047,2047,2047,2047,2047,2047,2047,2047,2047,2047,2047,2047,2047,2047,2047,2047,2047,2047,2047,2047,2047,2047,2047,2047,1026,1027,1027,1026,1026,1026,1026,1026,1026,1026,1026,1026,1026,1026,1027,1026,1027,1026,1026,1026,1026,1026,1026,1025,1025,1025,1025,1025,1025,1025,1025,1024,1024,1023,1024,1023,1024,1023,1023,1023,1023,1023,1023,1024,1023,1023,1023,1023,1022,1023,1023,1022,1023,1021,1021,1022,1022,1022,1022,1022,1022,1022,1022,1022,1022,1021,1021,1021,1022,1022,1022,1021,1021,1022,1022,1020,1020,1021,1020,1020,1019,1019,1018,1019,1020,1019,1020,2047,2047,2047,2047,2047,2047,2047,2047,2047,2047,2047,2047,2047,2047,2047,2047,2047,2047,2047,2047,2047,2047,2047,2047,2047,2047,2047
2047,2047,2047,2047,2047,2047,2047,2047,2047,2047,2047,2047,2047,2047,2047,2047,2047,2047,2047,2047,2047,2047,2047,2047,2047,2047,2047,2047,2047,2047,2047,2047,2047,2047,2047,2047,2047,2047,2047,2047,2047,2047,2047,2047,2047,2047,1013,1013,1013,1012,1012,1012,1011,1011,1011,1011,1011,1011,1011,1011,1012,1011,2047,2047,2047,2047,2047,2047,2047,2047,2047,2047,2047,2047,2047,2047,2047,2047,2047,2047,2047,2047,2047,2047,2047,2047,2047,2047,2047,2047,2047,2047,2047,2047,2047,2047,2047,2047,2047,2047,2047,2047,2047,2047,2047,2047,2047,2047,2047,2047,2047,707,707,706,705,703,702,700,699,697,696,695,694,693,693,692,692,691,690,689,689,688,688,688,687,687,686,686,686,685,685,685,684,684,683,683,683,682,682,682,681,681,681,681,681,681,680,680,680,680,680,680,680,680,680,680,680,679,679,678,678,678,678,678,677,677,677,677,677,676,676,677,677,675,670,670,670,670,669,669,668,668,668,668,668,667,668,667,667,666,667,667,666,666,666,666,666,666,666,666,667,667,667,667,667,667,667,667,667,667,667,668,668,668,668,669,669,669,669,669,669,669,669,669,669,669,670,670,669,670,670,670,670,670,671,671,671,671,671,671,672,672,672,672,672,672,673,673,673,674,674,674,674,674,675,675,675,676,676,676,677,677,677,678,678,679,679,679,679,680,679,679,680,680,680,680,680,680,681,681,681,681,682,683,684,684,685,685,686,687,687,688,690,693,694,695,696,696,697,698,698,699,700,701,701,701,701,701,701,702,702,702,703,703,704,704,705,705,706,706,707,707,708,710,710,712,713,714,715,716,717,718,718,719,719,2047,2047,2047,2047,2047,2047,2047,2047,2047,2047,2047,2047,2047,2047,761,760,760,760,759,758,757,756,755,754,753,752,751,751,750,749,748,748,747,747,748,747,747,747,748,748,748,748,748,749,749,750,750,750,750,751,752,752,753,753,753,754,753,753,753,1030,1030,1030,1030,1030,1029,1029,1029,1029,1029,1029,1029,1029,1029,1029,1029,1029,1029,1029,1029,1029,1029,1028,1028,1027,1027,1027,1027,1027,1027,1027,1026,1027,1027,1027,1027,1027,1027,1027,1027,1027,1027,1026,1026,1026,1026,1026,1026,1025,1025,1025,1025,1025,1025,1025,1024,1024,1024,1024,2047,2047,2047,2047,2047,2047,2047,2047,2047,2047,2047,1010,1009,1009,1008,1007,1007,1007,1004,1002,2047,2047,2047,2047,2047,2047,2047,2047,2047,2047,2047,2047,2047,2047,2047,2047,2047,2047,2047,2047,2047,2047,2047,2047,2047,2047,2047,2047,2047,2047,2047,2047,2047,2047,2047,2047,2047,2047,2047,2047,2047,2047,2047,1026,1026,1026,1026,1026,1026,1026,1026,1026,1026,1026,1026,1026,1026,1026,1026,1027,1026,1026,1026,1027,1026,1026,1025,1025,1025,1025,1025,1025,1025,1025,1025,1024,1024,1023,1023,1024,1023,1023,1023,1023,1023,1023,1023,1022,1023,1023,1023,1022,1022,1022,1023,1023,1021,1021,1021,1021,1022,1022,1022,1022,1021,1021,1022,1022,1021,1021,1021,1022,1022,1022,1021,1021,1022,1022,1020,1020,1020,1020,1020,1019,1019,1018,1018,1019,1019,1021,2047,2047,2047,2047,2047,2047,2047,2047,2047,2047,2047,2047,2047,2047,2047,2047,2047,2047,2047,2047,2047,2047,2047,2047,2047,2047,2047
2047,2047,2047,2047,2047,2047,2047,2047,2047,2047,2047,2047,2047,2047,2047,2047,2047,2047,2047,2047,2047,2047,2047,2047,2047,2047,2047,2047,2047,2047,2047,2047,2047,2047,2047,2047,2047,2047,2047,2047,2047,2047,2047,2047,2047,2047,1013,1013,1013,1012,1012,1011,1010,1011,1011,1011,1011,1011,1011,1011,1012,1012,1011,2047,2047,2047,2047,2047,2047,2047,2047,2047,2047,2047,2047,2047,2047,2047,2047,2047,2047,2047,2047,2047,2047,2047,2047,2047,2047,2047,2047,2047,2047,2047,2047,2047,2047,2047,2047,2047,2047,2047,2047,2047,2047,2047,2047,2047,2047,2047,708,707,706,705,704,703,702,700,698,697,696,693,692,692,692,692,691,690,690,689,689,688,688,687,687,686,686,685,685,685,684,684,684,683,683,682,682,682,681,682,681,681,681,680,680,680,680,679,679,679,679,679,679,679,679,679,679,679,679,678,678,678,679,678,678,678,678,678,677,677,676,676,676,676,677,675,673,672,670,670,669,669,669,668,668,668,668,668,668,667,667,666,666,666,666,666,666,666,666,666,666,666,666,666,666,667,667,667,667,667,667,667,668,668,668,668,669,669,669,669,669,668,669,669,669,669,669,669,669,669,669,669,669,669,670,671,671,671,671,671,671,672,672,672,672,672,672,672,673,673,673,673,673,673,674,674,675,675,675,675,676,676,677,677,677,678,678,679,679,679,679,679,680,680,680,680,680,680,681,681,681,682,683,683,684,684,685,685,686,686,687,690,697,696,696,696,696,697,697,698,698,699,700,700,700,701,701,701,701,701,701,702,702,703,703,704,704,705,706,706,706,707,708,709,710,710,712,713,714,716,717,718,718,719,719,720,2047,2047,2047,2047,2047,2047,2047,2047,2047,2047,2047,2047,2047,2047,759,758,758,758,757,756,755,754,754,752,752,751,750,749,748,748,747,747,747,747,747,747,747,748,748,748,748,748,749,749,749,750,750,750,751,751,751,752,753,753,754,753,753,753,1030,1030,1030,1030,1030,1030,1029,1029,1029,1029,1029,1029,1029,1029,1029,1029,1029,1029,1029,1029,1029,1029,1028,1028,1027,1027,1027,1028,1027,1027,1027,1026,1027,1027,1027,1027,1027,1027,1027,1027,1027,1027,1026,1027,1026,1026,1026,1026,1025,1025,1025,1024,1025,1025,1025,1024,1024,1024,1023,2047,2047,2047,2047,2047,2047,2047,2047,2047,2047,2047,1010,1009,1009,1008,1007,1007,1006,2047,1002,2047,2047,2047,2047,2047,2047,2047,2047,2047,2047,2047,2047,2047,2047,2047,2047,2047,2047,2047,2047,2047,2047,2047,2047,2047,2047,2047,2047,2047,2047,2047,2047,2047,2047,2047,2047,2047,2047,2047,2047,2047,2047,2047,1026,1026,1027,1026,1026,1026,1026,1026,1026,1026,1026,1026,1026,1026,1026,1027,1027,1027,1026,1026,1026,1025,1025,1025,1025,1025,1026,1026,1026,1026,1026,1026,1026,1026,1025,1025,1025,1024,1024,1024,1024,1024,1024,1023,1022,1023,1022,1022,1022,1021,1022,1022,1021,1021,1021,1021,1021,1021,1022,1022,1022,1021,1021,1023,1022,1022,1021,1021,1021,1021,1021,1021,1021,1021,1021,1020,1019,1020,1019,1019,1019,1019,1018,1019,1019,1018,1018,1019,2047,2047,2047,2047,2047,2047,2047,2047,2047,2047,2047,2047,2047,2047,2047,2047,2047,2047,2047,2047,2047,2047,2047,2047,2047,2047
2047,2047,2047,2047,2047,2047,2047,2047,2047,2047,2047,2047,2047,2047,2047,2047,2047,2047,2047,2047,2047,2047,2047,2047,2047,2047,2047,2047,2047,2047,2047,2047,2047,2047,2047,2047,2047,2047,2047,2047,2047,2047,2047,2047,1012,1013,1013,1012,1012,1012,1011,1012,1010,1011,1011,1012,1011,1011,1012,1012,1012,1012,1011,1010,2047,2047,2047,2047,2047,2047,2047,2047,2047,2047,2047,2047,2047,2047,2047,2047,2047,2047,2047,2047,2047,2047,2047,2047,2047,2047,2047,2047,2047,2047,2047,2047,2047,2047,2047,2047,2047,2047,2047,2047,2047,2047,2047,709,708,707,706,705,702,701,700,699,699,697,696,695,693,692,691,690,690,689,689,689,688,687,687,687,686,686,685,685,684,684,683,682,682,682,682,682,681,681,681,681,681,681,680,680,679,679,678,679,679,678,677,677,677,677,677,677,677,677,677,677,677,677,677,677,677,677,677,677,677,677,676,676,676,676,676,675,675,675,674,674,672,672,671,670,670,669,668,668,668,668,668,667,667,667,666,666,665,665,665,665,665,665,665,665,665,665,665,665,666,666,666,666,666,666,667,667,667,667,667,667,667,668,668,668,668,668,668,668,668,668,668,668,668,669,669,669,669,669,669,670,670,670,671,671,671,671,671,671,672,672,672,672,673,672,673,673,673,673,673,673,674,674,674,675,676,676,676,676,677,677,678,678,678,678,679,679,679,679,680,680,681,681,681,682,683,683,684,684,685,687,691,692,694,695,696,696,697,697,697,697,698,698,698,699,699,699,700,700,700,700,701,701,701,701,702,702,703,703,704,705,705,706,706,707,708,710,710,711,712,713,714,715,717,718,718,719,719,720,2047,2047,2047,2047,2047,2047,2047,2047,2047,2047,2047,763,763,762,762,761,760,759,758,757,756,754,754,753,752,751,750,750,750,749,749,749,749,749,749,749,749,749,749,749,750,750,750,751,752,752,752,753,753,754,754,754,755,754,755,754,753,750,750,1033,1031,1031,1030,1030,1030,1029,1029,1029,1029,1029,1029,1029,1029,1029,1029,1029,1029,1029,1029,1029,1029,1029,1028,1027,1028,1027,1027,1027,1027,1027,1027,1027,1027,1027,1027,1027,1026,1026,1026,1026,1026,1026,1026,1026,1025,1025,1024,1024,1024,1023,1023,1023,1023,1023,1023,1023,1023,1023,1023,1024,1024,1023,1023,2047,2047,2047,2047,2047,2047,2047,1007,1008,1006,1005,2047,2047,2047,2047,2047,2047,2047,2047,2047,2047,2047,2047,2047,2047,2047,2047,2047,2047,2047,2047,2047,2047,2047,2047,2047,2047,2047,2047,2047,2047,2047,2047,2047,2047,2047,2047,2047,2047,2047,2047,2047,2047,2047,2047,2047,2047,1026,1027,1027,1027,1027,1026,1026,1026,1026,1026,1026,1026,1026,1026,1026,1026,1026,1026,1026,1026,1026,1025,1025,1025,1025,1025,1026,1026,1026,1026,1026,1026,1026,1026,1025,1025,1025,1024,1024,1024,1023,1024,1024,1023,1022,1022,1021,1022,1022,1021,1022,1022,1021,1021,1022,1021,1021,1021,1022,1022,1022,1021,1022,1022,1022,1022,1021,1021,1021,1020,1021,1021,1021,1021,1021,1020,1019,1019,1019,1019,1019,1019,1019,1019,1019,1018,1018,1019,2047,2047,2047,2047,2047,2047,2047,2047,2047,2047,2047,2047,2047,2047,2047,2047,2047,2047,2047,2047,2047,2047,2047,2047,2047,2047
2047,2047,2047,2047,2047,2047,2047,2047,2047,2047,2047,2047,2047,2047,2047,2047,2047,2047,2047,2047,2047,2047,2047,2047,2047,2047,2047,2047,2047,2047,2047,2047,2047,2047,2047,2047,2047,2047,2047,2047,2047,2047,2047,2047,2047,1012,1013,1012,1012,1011,1011,1012,1011,1011,1012,1012,1012,1012,1012,1012,1012,1012,1011,1012,1012,1012,2047,2047,2047,2047,2047,2047,2047,2047,2047,2047,2047,2047,2047,2047,2047,2047,2047,2047,2047,2047,2047,2047,2047,2047,2047,2047,2047,2047,2047,2047,2047,2047,2047,2047,2047,2047,2047,2047,2047,2047,2047,708,708,707,705,704,701,700,700,698,698,697,696,694,693,691,690,690,689,689,689,688,688,687,686,686,685,685,684,684,684,684,683,682,682,681,681,681,681,681,681,680,681,681,680,680,679,679,678,678,678,678,677,677,677,677,677,677,677,676,677,677,677,677,677,677,677,676,677,676,676,676,676,676,676,676,676,675,675,675,675,674,673,672,672,671,671,670,670,669,670,669,668,668,668,666,667,666,665,665,665,665,665,665,665,666,665,665,665,665,666,666,666,665,666,666,666,666,666,666,667,667,667,667,667,667,667,667,668,668,668,668,668,668,668,668,668,669,669,669,669,669,669,670,670,670,670,670,671,671,671,672,672,672,672,672,672,672,672,673,673,673,673,673,674,675,675,675,676,676,676,677,678,678,678,679,679,680,680,680,680,680,681,681,682,682,683,684,684,685,691,692,693,693,694,695,696,696,697,697,697,697,697,698,698,699,699,699,699,700,700,700,700,700,700,701,701,701,702,703,704,704,705,705,706,707,708,709,710,711,712,713,713,714,717,717,718,718,719,720,2047,2047,2047,2047,2047,2047,2047,2047,2047,2047,2047,763,763,762,761,760,760,758,757,756,755,754,753,752,752,751,750,750,749,749,749,749,749,749,749,749,749,749,749,749,749,749,750,751,751,752,752,753,753,753,753,754,755,755,755,755,753,750,1034,1032,1031,1031,1030,1030,1030,1030,1030,1029,1029,1029,1029,1029,1029,1029,1029,1029,1029,1029,1029,1029,1029,1029,1028,1027,1027,1027,1027,1027,1028,1027,1027,1027,1027,1027,1027,1027,1027,1027,1027,1026,1026,1026,1026,1025,1025,1025,1024,1024,1024,1024,1023,1023,1023,1023,1023,1023,1023,1023,1024,1025,1025,1024,1024,2047,2047,2047,2047,2047,2047,2047,1007,1008,1006,1006,2047,2047,2047,2047,2047,2047,2047,2047,2047,2047,2047,2047,2047,2047,2047,2047,2047,2047,2047,2047,2047,2047,2047,2047,2047,2047,2047,2047,2047,2047,2047,2047,2047,2047,2047,2047,2047,2047,2047,2047,2047,2047,2047,2047,2047,2047,1027,1027,1027,1027,1027,1027,1027,1027,1026,1026,1026,1026,1026,1026,1026,1026,1026,1026,1026,1026,1025,1025,1025,1025,1025,1025,1026,1026,1026,1026,1026,1026,1026,1026,1025,1025,1025,1024,1024,1023,1023,1023,1023,1022,1021,1021,1021,1022,1022,1021,1022,1022,1022,1022,1022,1022,1021,1021,1022,1022,1022,1021,1021,1021,1022,1021,1021,1021,1021,1021,1021,1021,1021,1021,1021,1020,1019,1019,1019,1019,1019,1019,1018,1019,1019,1018,1018,2047,2047,2047,2047,2047,2047,2047,2047,2047,2047,2047,2047,2047,2047,2047,2047,2047,2047,2047,2047,2047,2047,2047,2047,2047,2047,2047
2047,2047,2047,2047,2047,2047,2047,2047,2047,2047,2047,2047,2047,2047,2047,2047,2047,2047,2047,2047,2047,2047,2047,2047,2047,2047,2047,2047,2047,2047,2047,2047,2047,2047,2047,2047,2047,2047,2047,2047,2047,2047,2047,2047,2047,2047,2047,2047,1012,1011,1011,1011,1011,1011,1011,1012,1012,1012,1012,1012,1012,1012,1012,1012,1012,1012,1011,2047,2047,2047,2047,2047,2047,2047,2047,2047,2047,2047,2047,2047,2047,2047,2047,2047,2047,2047,2047,2047,2047,2047,2047,2047,2047,2047,2047,2047,2047,2047,2047,2047,2047,2047,2047,2047,2047,2047,2047,707,706,705,704,701,699,699,698,698,697,697,693,692,692,691,689,689,689,688,688,688,687,686,686,685,685,684,684,684,683,683,682,682,681,681,681,681,681,681,681,680,680,680,680,679,678,678,677,677,677,677,677,677,677,677,677,677,676,676,676,676,676,676,676,676,676,676,676,676,676,676,676,676,676,676,675,675,675,675,675,675,674,673,673,673,672,672,671,672,672,670,669,669,669,668,668,667,666,666,666,665,665,665,666,666,666,666,666,666,666,666,665,665,665,665,665,666,666,666,666,666,667,667,667,667,667,667,667,667,668,668,668,668,668,668,668,668,668,669,669,669,669,669,669,669,669,670,670,670,671,671,671,672,672,672,672,672,672,672,672,673,673,673,673,674,675,675,676,676,676,677,677,678,678,678,679,680,680,680,680,681,681,681,684,684,685,685,692,692,692,693,693,693,694,695,696,696,696,697,697,697,697,697,697,698,698,699,699,699,699,699,700,700,700,700,701,701,702,702,703,704,705,705,705,706,707,708,709,710,711,712,713,714,716,717,717,718,718,720,720,2047,2047,2047,2047,2047,2047,2047,2047,2047,2047,763,763,762,761,760,759,758,757,756,755,754,753,752,752,751,750,750,749,749,749,749,749,749,749,749,749,749,749,749,749,750,750,750,751,751,751,752,753,753,753,754,755,755,755,755,753,750,1034,1031,1031,1031,1030,1030,1030,1030,1030,1029,1029,1029,1029,1029,1029,1029,1029,1029,1029,1029,1029,1029,1028,1028,1028,1027,1027,1027,1027,1027,1028,1027,1027,1028,1028,1028,1027,1027,1027,1027,1027,1027,1026,1026,1026,1025,1025,1024,1023,1023,1024,1023,1023,1023,1023,1023,1023,1023,1023,1023,1023,1024,1024,1024,1024,2047,2047,2047,2047,2047,2047,1007,1006,1006,1006,1005,2047,2047,2047,2047,2047,2047,2047,2047,2047,2047,2047,2047,2047,2047,2047,2047,2047,2047,2047,2047,2047,2047,2047,2047,2047,2047,2047,2047,2047,2047,2047,2047,2047,2047,2047,2047,2047,2047,2047,2047,2047,2047,2047,2047,2047,2047,1026,1026,1026,1027,1027,1027,1027,1027,1027,1027,1026,1026,1026,1025,1025,1025,1025,1025,1025,1025,1025,1025,1025,1025,1026,1026,1026,1026,1026,1026,1026,1026,1026,1026,1025,1025,1025,1024,1023,1023,1023,1023,1022,1022,1021,1021,1021,1022,1022,1022,1022,1022,1022,1022,1022,1022,1021,1022,1022,1022,1022,1021,1021,1021,1021,1021,1021,1020,1021,1021,1021,1022,1021,1021,1021,1020,1019,1019,1019,1019,1019,1018,1018,1018,1019,1018,1018,2047,2047,2047,2047,2047,2047,2047,2047,2047,2047,2047,2047,2047,2047,2047,2047,2047,2047,2047,2047,2047,2047,2047,2047,2047,2047,2047
2047,2047,2047,2047,2047,2047,2047,2047,2047,2047,2047,2047,2047,2047,2047,2047,2047,2047,2047,2047,2047,2047,2047,2047,2047,2047,2047,2047,2047,2047,2047,2047,2047,2047,2047,2047,2047,2047,2047,2047,2047,2047,2047,2047,2047,2047,2047,2047,1012,1011,1011,1011,1011,1012,1012,1012,1012,1012,1012,1012,1012,1012,1012,1012,1012,1012,1011,2047,2047,2047,2047,2047,2047,2047,2047,2047,2047,2047,2047,2047,2047,2047,2047,2047,2047,2047,2047,2047,2047,2047,2047,2047,2047,2047,2047,2047,2047,2047,2047,2047,2047,2047,2047,2047,2047,2047,2047,706,705,704,702,700,699,699,698,697,697,694,693,692,691,690,689,689,688,688,687,687,686,685,685,685,684,684,683,683,682,682,681,681,680,680,680,680,680,680,680,680,680,680,680,679,678,677,677,677,677,677,676,676,676,676,676,676,676,676,676,676,676,676,676,676,676,676,676,676,676,676,676,675,675,675,675,675,675,675,674,674,674,674,673,673,673,673,673,673,673,671,670,671,669,668,668,666,666,666,666,666,666,666,666,667,667,666,666,666,666,666,665,665,665,665,665,665,665,666,666,666,666,667,667,666,666,666,666,667,668,668,668,668,668,668,668,668,668,668,668,669,669,669,669,669,669,669,669,670,670,671,671,671,672,672,672,672,672,672,672,672,672,673,673,674,674,675,676,676,676,676,677,677,677,678,679,680,680,680,681,682,682,685,686,685,691,691,692,693,693,693,694,694,694,695,695,696,696,696,697,696,697,697,697,698,698,698,698,699,699,698,699,700,700,700,701,701,701,702,703,703,704,705,705,705,706,707,708,709,710,711,712,713,715,716,716,717,717,718,719,720,2047,2047,2047,2047,2047,2047,2047,2047,2047,2047,763,762,761,760,759,758,757,756,755,754,754,752,752,751,750,750,749,749,749,749,749,749,749,749,749,749,749,749,749,749,750,750,750,751,751,752,753,753,753,754,755,755,756,755,754,1034,1031,1031,1031,1031,1030,1030,1030,1030,1030,1029,1029,1029,1029,1029,1029,1029,1029,1029,1029,1029,1029,1029,1028,1028,1028,1027,1027,1027,1028,1028,1028,1027,1028,1028,1028,1028,1028,1027,1027,1027,1027,1027,1027,1026,1026,1025,1025,1024,1023,1023,1023,1023,1023,1023,1023,1023,1023,1023,1023,1023,1023,1024,1025,1024,1024,1024,2047,2047,2047,2047,2047,2047,1006,1006,1005,2047,2047,2047,2047,2047,2047,2047,2047,2047,2047,2047,2047,2047,2047,2047,2047,2047,2047,2047,2047,2047,2047,2047,2047,2047,2047,2047,2047,2047,2047,2047,2047,2047,2047,2047,2047,2047,2047,2047,2047,2047,2047,2047,2047,2047,2047,2047,2047,1026,1026,1027,1027,1027,1027,1027,1027,1027,1026,1026,1026,1026,1025,1025,1025,1025,1025,1026,1026,1025,1025,1025,1025,1026,1026,1025,1025,1026,1026,1026,1026,1025,1025,1025,1024,1024,1023,1023,1022,1022,1022,1022,1021,1021,1021,1022,1022,1022,1022,1022,1022,1022,1022,1022,1021,1021,1023,1022,1022,1021,1021,1020,1020,1021,1020,1020,1022,1022,1022,1022,1021,1021,1021,1020,1019,1019,1018,1018,1019,1019,1019,1019,1019,1018,1018,2047,2047,2047,2047,2047,2047,2047,2047,2047,2047,2047,2047,2047,2047,2047,2047,2047,2047,2047,2047,2047,2047,2047,2047,2047,2047,2047
2047,2047,2047,2047,2047,2047,2047,2047,2047,2047,2047,2047,2047,2047,2047,2047,2047,2047,2047,2047,2047,2047,2047,2047,2047,2047,2047,2047,2047,2047,2047,2047,2047,2047,2047,2047,2047,2047,2047,2047,2047,2047,2047,2047,2047,2047,2047,2047,1012,1011,1011,1011,1011,1012,1012,1012,1012,1012,1012,1012,1012,1012,1012,1012,1012,1012,1010,2047,2047,2047,2047,2047,2047,2047,2047,2047,2047,2047,2047,2047,2047,2047,2047,2047,2047,2047,2047,2047,2047,2047,2047,2047,2047,2047,2047,2047,2047,2047,2047,2047,2047,2047,2047,2047,2047,2047,2047,705,704,705,702,699,698,698,697,696,696,693,692,692,691,689,689,688,688,687,687,687,686,685,685,684,684,683,683,682,682,681,681,681,680,680,680,680,680,680,680,679,680,679,679,678,677,677,677,677,676,676,676,676,676,676,676,676,676,676,676,676,676,676,676,676,676,676,676,676,676,675,675,675,675,675,674,674,674,674,674,674,674,674,674,674,673,673,673,673,673,672,672,672,671,670,670,670,672,672,669,668,668,669,669,669,668,667,667,667,667,667,666,666,666,665,665,666,666,666,666,666,666,667,667,667,667,667,667,667,668,668,667,668,668,668,668,668,668,668,669,669,669,669,669,669,669,669,669,669,670,670,671,671,671,672,672,672,672,672,672,672,673,673,673,674,674,675,676,676,676,676,677,677,677,678,679,680,681,681,681,688,689,689,689,691,692,692,692,693,693,693,694,693,694,694,695,695,695,696,696,696,696,696,696,697,697,697,698,698,698,698,699,699,700,700,700,701,701,702,702,702,703,704,705,705,706,707,708,709,710,711,712,713,714,715,715,716,717,717,718,719,2047,2047,2047,2047,2047,2047,2047,2047,2047,763,762,762,761,760,759,758,757,756,755,754,754,752,751,750,750,749,749,749,749,748,749,748,748,748,748,748,748,749,749,749,749,750,750,750,750,751,752,753,753,753,754,754,755,755,754,754,1031,1031,1031,1030,1030,1030,1030,1030,1030,1029,1029,1029,1029,1029,1029,1029,1029,1029,1029,1029,1029,1029,1028,1028,1027,1027,1027,1027,1028,1028,1028,1027,1028,1028,1028,1028,1028,1028,1028,1028,1027,1027,1026,1026,1025,1025,1025,1024,1024,1024,1025,1024,1024,1024,1024,1023,1023,1023,1023,1023,1023,1024,1025,1024,1024,1025,1024,2047,2047,2047,2047,2047,1005,1005,1004,2047,2047,2047,2047,2047,2047,2047,2047,2047,2047,2047,2047,2047,2047,2047,2047,2047,2047,2047,2047,2047,2047,2047,2047,2047,2047,2047,2047,2047,2047,2047,2047,2047,2047,2047,2047,2047,2047,2047,2047,2047,2047,2047,2047,2047,2047,2047,2047,1026,1026,1027,1026,1026,1027,1027,1027,1027,1026,1026,1026,1026,1025,1025,1025,1025,1025,1025,1025,1025,1025,1025,1025,1025,1026,1025,1026,1026,1026,1026,1026,1025,1025,1025,1024,1024,1023,1023,1022,1022,1022,1022,1021,1021,1021,1022,1022,1021,1021,1022,1022,1022,1022,1021,1021,1021,1021,1022,1021,1021,1020,1021,1020,1021,1021,1020,1022,1022,1022,1022,1021,1021,1021,1020,1019,1018,1018,1018,1018,1019,1019,1019,1019,1018,1019,2047,2047,2047,2047,2047,2047,2047,2047,2047,2047,2047,2047,2047,2047,2047,2047,2047,2047,2047,2047,2047,2047,2047,2047,2047,2047,2047
2047,2047,2047,2047,2047,2047,2047,2047,2047,2047,2047,2047,2047,2047,2047,2047,2047,2047,2047,2047,2047,2047,2047,2047,2047,2047,2047,2047,2047,2047,2047,2047,2047,2047,2047,2047,2047,2047,2047,2047,2047,2047,2047,2047,2047,2047,2047,2047,1011,1011,1011,1011,1012,1012,1012,1012,1012,1012,1012,1012,1012,1011,2047,1012,1012,1012,1010,2047,2047,2047,2047,2047,2047,2047,2047,2047,2047,2047,2047,2047,2047,2047,2047,2047,2047,2047,2047,2047,2047,2047,2047,2047,2047,2047,2047,2047,2047,2047,2047,2047,2047,2047,2047,2047,2047,2047,704,704,704,703,700,698,697,697,696,696,693,693,692,692,690,689,688,688,688,687,686,686,685,685,684,685,684,683,682,682,682,681,681,680,680,679,679,679,680,679,679,679,679,679,678,677,677,677,676,677,676,676,676,676,676,675,676,676,676,675,675,675,675,675,675,675,675,675,675,675,675,675,675,675,675,675,674,674,674,674,674,674,674,674,674,674,674,674,673,673,673,673,672,673,672,672,672,672,675,673,673,672,671,672,671,671,670,669,669,668,668,668,667,666,666,666,666,666,666,666,666,666,666,667,667,667,667,666,666,667,667,668,667,667,668,668,668,668,668,668,668,668,669,669,669,669,669,669,669,669,670,671,671,671,671,672,672,672,672,672,672,672,673,673,673,674,674,675,676,676,676,676,677,677,677,677,677,688,688,688,688,688,688,689,689,690,691,692,692,692,693,693,693,693,693,693,694,694,694,695,695,695,695,696,696,696,697,697,697,697,697,697,698,699,699,700,700,700,701,701,702,702,702,704,704,705,705,706,707,708,709,710,711,713,714,715,716,717,717,717,718,2047,2047,2047,2047,2047,2047,2047,2047,2047,2047,2047,762,761,760,759,758,758,757,756,755,754,754,752,751,750,749,749,749,749,748,748,748,748,748,748,748,748,748,748,749,749,749,749,750,750,750,751,751,752,752,753,754,754,755,756,755,754,1031,1031,1031,1030,1030,1030,1030,1030,1030,1029,1029,1029,1029,1029,1029,1029,1029,1029,1029,1029,1029,1028,1028,1028,1028,1027,1027,1027,1027,1028,1028,1027,1027,1027,1028,1028,1028,1028,1027,1027,1027,1027,1026,1027,1025,1025,1025,1024,1025,1024,1025,1024,1024,1024,1024,1024,1023,1023,1022,1023,1023,1023,1023,1024,1024,1024,1024,2047,2047,2047,2047,2047,1005,1005,1005,2047,2047,2047,2047,2047,2047,2047,2047,2047,2047,2047,2047,2047,2047,2047,2047,2047,2047,2047,2047,2047,2047,2047,2047,2047,2047,2047,2047,2047,2047,2047,2047,2047,2047,2047,2047,2047,2047,2047,2047,2047,2047,2047,2047,2047,2047,2047,2047,1026,1027,1028,1028,1028,1027,1027,1027,1027,1026,1026,1026,1026,1027,1026,1025,1025,1025,1025,1025,1025,1025,1025,1025,1025,1026,1025,1025,1025,1026,1026,1025,1024,1025,1024,1024,1023,1022,1022,1022,1021,1021,1021,1021,1021,1021,1021,1021,1021,1022,1022,1022,1022,1022,1022,1022,1022,1022,1022,1021,1021,1020,1019,1019,1019,1019,1018,1018,1018,1019,1019,1019,1018,1019,1020,1020,1020,1020,1020,1019,1020,1019,1019,1018,1017,1017,1018,2047,2047,2047,2047,2047,2047,2047,2047,2047,2047,2047,2047,2047,2047,2047,2047,2047,2047,2047,2047,2047,2047,2047,2047,2047,2047
2047,2047,2047,2047,2047,2047,2047,2047,2047,2047,2047,2047,2047,2047,2047,2047,2047,2047,2047,2047,2047,2047,2047,2047,2047,2047,2047,2047,2047,2047,2047,2047,2047,2047,2047,2047,2047,2047,2047,2047,2047,2047,2047,2047,2047,2047,2047,1011,1011,1010,1010,1011,1011,1012,1012,1012,1012,1011,1012,1014,2047,2047,2047,2047,2047,2047,2047,2047,2047,2047,2047,2047,2047,2047,2047,2047,2047,2047,2047,2047,2047,2047,2047,2047,2047,2047,2047,2047,2047,2047,2047,2047,2047,2047,2047,2047,2047,2047,2047,2047,2047,2047,2047,2047,2047,704,704,2047,700,698,697,695,694,694,693,693,692,691,690,689,689,688,688,687,686,686,685,685,684,684,684,683,683,681,681,681,680,680,680,679,679,678,679,679,679,678,678,677,678,678,677,677,676,676,676,676,676,676,675,675,675,675,675,675,675,674,674,674,674,674,673,673,673,673,673,673,673,673,673,674,673,673,673,673,673,673,673,673,673,673,673,673,673,673,672,673,672,672,672,672,672,672,672,672,673,673,673,672,672,672,671,671,670,669,669,668,668,668,667,667,667,667,666,668,667,666,666,667,666,667,667,667,667,667,666,667,668,667,667,667,667,667,668,667,667,668,668,668,669,669,669,669,669,669,669,669,669,670,671,671,671,671,672,672,672,672,673,672,673,673,673,674,674,676,677,677,676,677,677,682,685,685,686,688,688,689,691,689,689,691,691,691,691,691,692,692,692,692,693,693,693,693,693,693,694,694,694,694,694,695,695,695,696,696,696,697,697,697,697,697,699,699,700,700,701,701,701,702,702,703,704,704,705,706,707,708,709,711,712,714,716,716,716,717,717,717,2047,2047,2047,2047,2047,2047,2047,2047,2047,2047,2047,2047,760,759,759,758,758,757,757,755,754,753,752,750,749,749,748,748,748,748,748,748,748,748,748,748,749,749,749,749,749,750,750,751,751,752,752,753,753,753,753,753,754,754,755,755,755,1029,1029,1030,1030,1030,1030,1030,1030,1030,1030,1030,1029,1029,1029,1029,1029,1029,1029,1029,1028,1029,1029,1028,1027,1027,1028,1027,1028,1027,1027,1027,1028,1028,1027,1027,1027,1027,1026,1027,1027,1026,1027,1027,1027,1027,1027,1026,1026,1025,1025,1024,1024,1024,1023,1023,1023,1023,1023,1022,1022,1022,1022,1022,1022,1023,1023,1023,2047,2047,2047,2047,2047,1006,1006,1006,1004,1002,1002,2047,2047,2047,2047,2047,2047,2047,2047,2047,2047,2047,2047,2047,2047,2047,2047,2047,2047,2047,2047,2047,2047,2047,2047,2047,2047,2047,2047,2047,2047,2047,2047,2047,2047,2047,2047,2047,2047,2047,2047,2047,2047,2047,1026,1027,1027,1027,1027,1027,1027,1027,1026,1026,1027,1027,1026,1026,1026,1027,1027,1026,1025,1025,1024,1025,1025,1025,1025,1025,1026,1026,1026,1025,1025,1025,1025,1025,1025,1024,1024,1024,1024,1023,1022,1022,1021,1021,1021,1021,1021,1021,1021,1021,1021,1021,1021,1021,1022,1021,1022,1022,1022,1022,1022,1022,1022,1021,1021,1020,1020,1019,1018,1018,1018,1018,1018,1018,1018,1018,1018,1019,1020,1019,1019,1018,1019,1020,1019,1019,1018,1017,1017,1017,2047,2047,2047,2047,2047,2047,2047,2047,2047,2047,2047,2047,2047,2047,2047,2047,2047,2047,2047,2047,2047,2047,2047,2047,2047,2047
2047,2047,2047,2047,2047,2047,2047,2047,2047,2047,2047,2047,2047,2047,2047,2047,2047,2047,2047,2047,2047,2047,2047,2047,2047,2047,2047,2047,2047,2047,2047,2047,2047,2047,2047,2047,2047,2047,2047,2047,2047,2047,2047,2047,2047,2047,2047,1011,1011,1011,1011,1011,1011,1011,1011,1011,1012,1012,2047,2047,2047,2047,2047,2047,2047,2047,2047,2047,2047,2047,2047,2047,2047,2047,2047,2047,2047,2047,2047,2047,2047,2047,2047,2047,2047,2047,2047,2047,2047,2047,2047,2047,2047,2047,2047,2047,2047,2047,2047,2047,2047,2047,2047,705,704,704,701,700,699,698,697,695,694,693,693,693,691,690,689,689,688,688,687,687,686,685,685,684,684,684,683,683,682,681,680,680,680,680,680,679,677,677,678,678,678,677,677,677,677,677,677,676,676,676,676,676,675,675,675,675,675,674,675,674,675,674,674,674,674,673,673,673,673,673,673,672,672,673,673,673,673,673,673,673,673,673,673,673,673,673,673,673,673,673,672,673,673,673,673,673,673,673,673,673,673,673,673,673,673,672,672,671,671,671,670,670,669,669,669,668,668,668,670,670,669,668,668,668,668,668,667,667,668,667,667,668,668,668,667,667,667,667,668,668,667,668,668,669,669,669,669,669,669,669,669,669,669,670,671,671,672,672,672,673,673,673,673,673,673,673,676,677,677,683,681,678,678,680,685,682,685,685,686,687,688,689,690,689,689,690,690,691,691,691,691,692,692,692,692,692,692,692,692,692,693,693,693,693,693,693,694,694,695,695,696,696,696,696,697,697,698,698,700,700,701,701,701,702,702,703,703,704,704,706,707,708,708,710,711,713,715,716,716,717,717,717,2047,2047,2047,2047,2047,2047,2047,2047,2047,2047,2047,2047,759,759,759,758,758,757,757,756,754,752,751,749,749,748,747,747,747,747,747,747,748,748,748,748,748,749,749,749,749,749,750,750,751,751,751,752,753,753,753,753,754,754,754,754,754,1029,1029,1030,1030,1030,1030,1030,1030,1029,1030,1029,1029,1029,1029,1029,1029,1029,1028,1029,1029,1028,1029,1028,1028,1027,1028,1028,1028,1027,1027,1027,1028,1028,1027,1027,1027,1027,1027,1027,1026,1026,1026,1026,1027,1027,1027,1026,1026,1025,1025,1024,1024,1023,1023,1022,1023,1023,1023,1023,1022,1022,1022,1022,1023,1023,1023,1024,1024,2047,2047,2047,2047,1006,1006,1005,1004,1002,1002,1001,2047,2047,2047,2047,2047,2047,2047,2047,2047,2047,2047,2047,2047,2047,2047,2047,2047,2047,2047,2047,2047,2047,2047,2047,2047,2047,2047,2047,2047,2047,2047,2047,2047,2047,2047,2047,2047,2047,2047,2047,2047,2047,1027,1027,1027,1027,1027,1027,1027,1027,1026,1026,1027,1027,1027,1026,1027,1027,1027,1026,1025,1025,1025,1025,1025,1025,1025,1025,1026,1026,1025,1025,1025,1025,1025,1025,1024,1024,1024,1024,1024,1023,1022,1021,1021,1021,1021,1021,1021,1021,1021,1022,1021,1021,1021,1021,1021,1021,1021,1022,1022,1022,1022,1022,1022,1022,1021,1020,1020,1019,1019,1019,1018,1018,1018,1018,1018,1018,1019,1019,1019,1019,1018,1018,1019,1020,1020,1018,1018,1017,1018,1017,2047,2047,2047,2047,2047,2047,2047,2047,2047,2047,2047,2047,2047,2047,2047,2047,2047,2047,2047,2047,2047,2047,2047,2047,2047,2047
2047,2047,2047,2047,2047,2047,2047,2047,2047,2047,2047,2047,2047,2047,2047,2047,2047,2047,2047,2047,2047,2047,2047,2047,2047,2047,2047,2047,2047,2047,2047,2047,2047,2047,2047,2047,2047,2047,2047,2047,2047,2047,2047,2047,2047,2047,2047,2047,2047,1011,1011,1011,1012,1012,1012,1011,1012,1012,2047,2047,2047,2047,2047,2047,2047,2047,2047,2047,2047,2047,2047,2047,2047,2047,2047,2047,2047,2047,2047,2047,2047,2047,2047,2047,2047,2047,2047,2047,2047,2047,2047,2047,2047,2047,2047,2047,2047,2047,2047,2047,2047,2047,2047,704,702,701,700,699,698,697,696,695,694,693,693,692,690,690,689,689,688,687,687,686,685,685,685,684,684,684,683,683,682,681,680,680,680,680,679,678,677,677,677,677,677,677,677,677,677,676,676,676,675,676,675,675,674,675,674,674,674,674,674,674,674,674,673,673,673,673,673,673,673,673,673,672,672,672,672,673,673,673,673,673,673,673,673,673,673,672,673,673,672,672,672,673,672,673,672,673,673,673,673,673,673,673,673,673,673,672,672,672,672,671,671,670,670,670,670,670,669,670,672,672,672,671,671,671,671,670,669,669,668,668,668,668,668,668,668,668,668,668,669,668,668,669,669,669,669,669,669,669,669,670,670,670,670,670,671,671,672,672,673,673,674,673,673,674,674,683,683,684,684,684,684,685,684,683,685,684,685,685,686,687,688,688,689,689,689,690,690,690,691,691,690,691,691,691,692,692,691,692,692,692,692,692,692,693,693,693,693,693,694,694,695,695,696,696,696,697,697,698,699,700,700,701,701,701,701,702,703,703,704,705,706,707,707,709,710,712,715,715,716,716,716,717,2047,2047,2047,2047,2047,2047,2047,2047,2047,2047,2047,2047,760,759,759,758,758,757,757,756,754,753,751,749,748,747,747,746,747,747,747,747,747,748,748,748,748,748,749,749,749,749,750,750,750,751,751,752,752,753,752,753,753,753,754,754,1030,1030,1029,1030,1030,1030,1030,1030,1029,1029,1029,1029,1029,1029,1029,1029,1029,1029,1028,1029,1029,1029,1029,1028,1028,1027,1028,1028,1028,1027,1027,1027,1028,1028,1027,1027,1027,1027,1027,1027,1027,1027,1027,1027,1027,1027,1026,1026,1026,1025,1025,1024,1024,1023,1024,1023,1024,1023,1023,1023,1022,1022,1022,1023,1023,1024,1024,1025,1025,2047,2047,2047,1006,1006,1006,1005,1004,1003,1002,1001,2047,2047,2047,2047,2047,2047,2047,2047,2047,2047,2047,2047,2047,2047,2047,2047,2047,2047,2047,2047,2047,2047,2047,2047,2047,2047,2047,2047,2047,2047,2047,2047,2047,2047,2047,2047,2047,2047,2047,2047,2047,2047,1026,1027,1027,1027,1027,1027,1027,1027,1026,1027,1027,1027,1026,1026,1026,1027,1027,1026,1025,1025,1025,1025,1025,1025,1025,1025,1026,1026,1025,1025,1025,1024,1025,1024,1024,1024,1024,1023,1022,1022,1021,1021,1021,1021,1021,1021,1021,1022,1022,1022,1022,1022,1022,1021,1021,1021,1021,1022,1022,1022,1022,1022,1022,1022,1021,1020,1020,1020,1019,1019,1018,1018,1018,1018,1018,1018,1018,1018,1019,1018,1018,1018,1019,1020,1020,1018,1018,1018,1018,2047,2047,2047,2047,2047,2047,2047,2047,2047,2047,2047,2047,2047,2047,2047,2047,2047,2047,2047,2047,2047,2047,2047,2047,2047,2047,2047
2047,2047,2047,2047,2047,2047,2047,2047,2047,2047,2047,2047,2047,2047,2047,2047,2047,2047,2047,2047,2047,2047,2047,2047,2047,2047,2047,2047,2047,2047,2047,2047,2047,2047,2047,2047,2047,2047,2047,2047,2047,2047,2047,2047,2047,2047,2047,2047,2047,1011,1011,1011,1012,1012,1012,1011,1012,1012,2047,2047,2047,2047,2047,2047,2047,2047,2047,2047,2047,2047,2047,2047,2047,2047,2047,2047,2047,2047,2047,2047,2047,2047,2047,2047,2047,2047,2047,2047,2047,2047,2047,2047,2047,2047,2047,2047,2047,2047,2047,2047,2047,2047,704,704,703,701,701,699,697,697,696,694,694,692,692,691,690,689,689,688,688,687,686,686,685,685,684,684,683,683,682,682,681,681,680,680,679,679,678,678,677,677,677,677,677,676,676,676,676,675,676,675,675,674,674,674,674,674,674,674,674,674,674,674,674,673,673,673,673,673,673,673,673,673,672,672,672,672,672,672,672,672,672,672,672,672,673,672,672,672,672,672,672,672,672,673,673,673,673,673,673,673,673,673,673,673,673,673,673,672,672,672,672,672,671,671,671,671,671,671,671,671,672,672,672,672,672,672,672,672,671,670,670,669,669,669,669,670,670,669,669,670,670,669,670,670,670,670,670,670,670,670,670,670,670,670,670,671,672,672,673,673,679,675,677,681,681,683,683,684,684,684,684,684,684,684,684,685,686,685,686,686,687,688,688,688,688,688,689,689,689,689,690,690,690,690,690,690,691,690,690,691,691,691,691,692,692,692,692,692,693,693,694,694,694,695,696,696,696,696,697,697,699,699,700,700,700,701,701,701,702,702,703,705,706,707,707,708,710,711,713,714,715,716,716,716,716,2047,2047,2047,2047,2047,2047,2047,2047,2047,2047,2047,760,759,759,758,758,757,757,756,755,754,753,750,748,747,746,747,747,747,747,747,747,747,748,748,748,748,748,749,749,749,750,750,750,750,750,751,751,752,752,752,753,753,753,753,1030,1030,1030,1030,1030,1030,1030,1030,1029,1029,1029,1029,1029,1029,1029,1029,1029,1029,1029,1029,1029,1029,1028,1028,1028,1028,1028,1028,1028,1028,1028,1028,1028,1028,1027,1027,1027,1027,1026,1026,1026,1026,1026,1026,1026,1026,1026,1026,1025,1025,1025,1024,1024,1024,1024,1024,1024,1022,1024,1023,1023,1024,1022,1023,1023,1024,1024,1025,1025,2047,2047,2047,2047,2047,1006,2047,2047,1002,1001,2047,2047,2047,2047,2047,2047,2047,2047,2047,2047,2047,2047,2047,2047,2047,2047,2047,2047,2047,2047,2047,2047,2047,2047,2047,2047,2047,2047,2047,2047,2047,2047,2047,2047,2047,2047,2047,2047,2047,2047,2047,2047,2047,1027,1027,1027,1027,1027,1027,1027,1026,1026,1026,1027,1027,1026,1026,1026,1027,1027,1026,1025,1025,1025,1025,1025,1025,1024,1025,1025,1025,1025,1024,1025,1024,1025,1025,1024,1023,1023,1022,1022,1022,1021,1021,1021,1021,1021,1021,1021,1022,1022,1022,1021,1021,1021,1021,1021,1021,1021,1022,1022,1022,1022,1022,1022,1022,1022,1021,1021,1021,1020,1019,1019,1019,1018,1018,1018,1018,1018,1018,1018,1020,1018,1018,1019,1020,1019,1018,1018,1018,2047,2047,2047,2047,2047,2047,2047,2047,2047,2047,2047,2047,2047,2047,2047,2047,2047,2047,2047,2047,2047,2047,2047,2047,2047,2047,2047,2047
2047,2047,2047,2047,2047,2047,2047,2047,2047,2047,2047,2047,2047,2047,2047,2047,2047,2047,2047,2047,2047,2047,2047,2047,2047,2047,2047,2047,2047,2047,2047,2047,2047,2047,2047,2047,2047,2047,2047,2047,2047,2047,2047,2047,2047,2047,2047,2047,2047,2047,1011,1011,1012,1012,1011,1011,1012,1012,2047,2047,2047,2047,2047,2047,2047,2047,2047,2047,2047,2047,2047,2047,2047,2047,2047,2047,2047,2047,2047,2047,2047,2047,2047,2047,2047,2047,2047,2047,2047,2047,2047,2047,2047,2047,2047,2047,2047,2047,2047,2047,2047,2047,703,703,701,700,700,698,697,696,695,694,693,692,692,690,689,689,688,688,687,687,686,686,685,684,684,684,683,683,682,682,681,681,680,680,679,679,678,678,677,677,677,677,677,676,676,676,676,675,675,674,674,674,674,674,674,674,674,674,674,674,674,674,674,673,673,673,673,673,673,673,673,672,672,672,672,672,672,672,672,672,672,672,672,672,672,672,672,672,672,672,672,672,672,672,672,672,672,672,673,672,672,672,673,673,673,673,673,673,673,672,672,672,672,672,672,673,672,672,672,673,673,673,673,672,673,672,672,672,672,671,671,671,671,671,671,672,672,671,671,672,672,671,671,671,671,671,671,671,671,672,671,672,672,672,672,674,674,674,680,681,680,680,680,681,681,682,683,684,684,684,684,684,685,685,685,685,686,686,686,686,686,687,687,687,688,688,688,688,688,689,689,689,689,689,689,689,690,689,689,690,690,690,691,691,691,692,692,692,693,693,693,693,694,694,695,695,696,696,696,697,698,698,699,700,700,700,700,701,701,702,702,704,704,706,706,708,709,710,711,713,715,715,715,716,716,2047,2047,2047,2047,2047,2047,2047,2047,2047,2047,762,760,759,759,758,758,757,757,756,756,754,753,750,748,747,746,746,746,746,746,746,746,746,747,747,748,748,748,749,749,749,749,750,750,750,750,751,751,751,751,752,752,753,753,753,1030,1030,1030,1030,1030,1030,1030,1030,1029,1029,1029,1029,1029,1029,1029,1029,1029,1029,1029,1029,1029,1029,1029,1028,1029,1028,1029,1028,1028,1028,1028,1029,1028,1027,1027,1027,1027,1027,1026,1026,1026,1026,1026,1026,1026,1026,1026,1026,1025,1025,1025,1025,1024,1024,1024,1024,1024,1023,1024,1023,1023,1023,1023,1022,1022,1024,1024,1025,2047,2047,2047,2047,2047,2047,2047,2047,2047,1002,1001,2047,2047,2047,2047,2047,2047,2047,2047,2047,2047,2047,2047,2047,2047,2047,2047,2047,2047,2047,2047,2047,2047,2047,2047,2047,2047,2047,2047,2047,2047,2047,2047,2047,2047,2047,2047,2047,2047,2047,2047,2047,2047,1026,1026,1027,1027,1026,1026,1027,1026,1026,1026,1026,1026,1026,1026,1025,1026,1027,1027,1026,1025,1025,1024,1025,1024,1024,1024,1024,1025,1025,1025,1024,1024,1024,1025,1024,1024,1023,1023,1022,1022,1021,1021,1021,1021,1021,1021,1022,1022,1022,1022,1021,1021,1021,1021,1021,1021,1021,1021,1022,1022,1022,1022,1022,1022,1022,1021,1020,1020,1020,1019,1018,1018,1018,1018,1018,1018,1017,1017,1017,1018,1018,1018,1018,1018,1020,2047,2047,2047,2047,2047,2047,2047,2047,2047,2047,2047,2047,2047,2047,2047,2047,2047,2047,2047,2047,2047,2047,2047,2047,2047,2047,2047,2047,2047,2047,2047,2047
2047,2047,2047,2047,2047,2047,2047,2047,2047,2047,2047,2047,2047,2047,2047,2047,2047,2047,2047,2047,2047,2047,2047,2047,2047,2047,2047,2047,2047,2047,2047,2047,2047,2047,2047,2047,2047,2047,2047,2047,2047,2047,2047,2047,2047,2047,2047,2047,2047,2047,2047,1011,1012,1012,1011,1011,1011,2047,2047,2047,2047,2047,2047,2047,2047,2047,2047,2047,2047,2047,2047,2047,2047,2047,2047,2047,2047,2047,2047,2047,2047,2047,2047,2047,2047,2047,2047,2047,2047,2047,2047,2047,2047,2047,2047,2047,2047,2047,2047,2047,2047,2047,703,703,701,700,699,698,697,696,695,693,693,691,691,689,689,688,688,687,687,686,685,685,685,684,684,683,682,682,681,681,681,680,680,680,678,678,677,677,677,677,677,677,677,676,676,676,675,675,674,674,674,674,674,674,674,674,674,674,674,674,674,674,674,673,673,673,673,673,673,672,672,672,672,672,671,672,672,672,672,672,672,672,672,672,672,672,672,672,672,672,672,672,672,672,672,672,672,672,673,672,672,672,672,672,673,673,673,672,672,672,672,672,672,672,672,673,673,673,673,673,673,673,673,673,673,673,673,672,672,672,672,672,672,672,672,672,672,672,672,672,673,672,673,672,673,673,673,673,673,674,673,674,674,675,676,676,677,679,680,681,680,680,680,681,682,682,683,684,684,684,684,684,685,685,685,685,685,685,685,686,686,687,687,687,687,688,688,688,688,688,688,689,689,689,689,689,689,689,689,689,689,689,690,690,691,691,691,692,692,692,693,693,693,694,694,695,695,695,696,696,697,698,699,700,700,700,700,700,701,701,701,703,704,706,706,707,709,709,710,712,713,714,714,716,715,2047,2047,2047,2047,2047,2047,2047,2047,2047,2047,762,760,759,759,758,758,757,757,756,755,753,752,749,747,747,746,746,746,746,746,746,746,746,747,747,747,748,748,748,748,749,749,749,749,750,750,751,751,751,751,752,753,753,753,753,1030,1030,1030,1030,1030,1030,1030,1030,1029,1029,1029,1029,1029,1029,1029,1029,1029,1029,1029,1029,1029,1029,1029,1029,1029,1029,1029,1028,1028,1028,1028,1028,1028,1028,1028,1027,1027,1027,1027,1026,1026,1026,1026,1026,1026,1026,1026,1026,1025,1025,1024,1024,1024,1024,1024,1024,1024,1024,1024,1024,1023,1023,1023,1022,1022,1023,1023,1025,2047,2047,2047,2047,2047,2047,2047,2047,2047,2047,2047,2047,2047,2047,2047,2047,2047,2047,2047,2047,2047,2047,2047,2047,2047,2047,2047,2047,2047,2047,2047,2047,2047,2047,2047,2047,2047,2047,2047,2047,2047,2047,2047,2047,2047,2047,2047,2047,2047,2047,2047,2047,2047,1026,1026,1027,1026,1026,1026,1026,1026,1025,1025,1026,1026,1026,1026,1026,1026,1027,1027,1026,1025,1025,1025,1025,1025,1025,1024,1024,1024,1024,1024,1024,1023,1023,1024,1023,1023,1023,1022,1022,1022,1021,1021,1021,1022,1021,1021,1022,1022,1022,1022,1021,1021,1020,1021,1020,1020,1021,1021,1021,1021,1022,1022,1022,1022,1021,1021,1020,1020,1020,1019,1019,1018,1018,1018,1018,1018,1018,1018,1018,1020,1020,1019,1019,1019,1020,2047,2047,2047,2047,2047,2047,2047,2047,2047,2047,2047,2047,2047,2047,2047,2047,2047,2047,2047,2047,2047,2047,2047,2047,2047,2047,2047,2047,2047,2047,2047,2047
2047,2047,2047,2047,2047,2047,2047,2047,2047,2047,2047,2047,2047,2047,2047,2047,2047,2047,2047,2047,2047,2047,2047,2047,2047,2047,2047,2047,2047,2047,2047,2047,2047,2047,2047,2047,2047,2047,2047,2047,2047,2047,2047,2047,2047,2047,2047,2047,2047,2047,2047,2047,1012,1012,1012,1012,1011,1010,1012,2047,2047,2047,2047,2047,2047,2047,2047,2047,2047,2047,2047,2047,2047,2047,2047,2047,2047,2047,2047,2047,2047,2047,2047,2047,2047,2047,2047,2047,2047,2047,2047,2047,2047,2047,2047,2047,2047,2047,2047,704,704,703,702,701,700,699,698,696,696,695,693,691,690,689,689,688,688,687,687,686,685,684,684,683,682,681,681,681,680,681,681,680,680,679,678,678,678,677,676,676,676,675,675,675,675,675,675,674,674,673,673,672,672,673,672,672,672,673,673,673,674,673,673,673,673,673,672,672,672,672,672,672,671,672,672,672,671,671,671,671,671,671,671,672,672,672,672,671,672,672,671,671,671,672,672,672,672,672,672,672,672,672,672,672,672,672,672,672,672,672,673,673,672,672,672,672,672,672,671,671,672,672,672,672,672,672,672,672,672,672,672,672,672,673,673,672,672,673,673,673,673,674,674,674,674,674,674,674,674,674,675,675,675,675,676,676,677,677,679,680,681,681,681,681,681,681,682,683,683,683,684,684,684,685,685,685,685,685,685,685,685,685,685,686,686,686,686,686,687,687,686,686,686,687,687,687,687,688,688,689,689,689,689,689,690,689,690,690,690,691,691,692,692,692,692,693,694,695,696,696,697,697,697,698,698,699,700,700,700,701,701,702,702,704,705,707,707,708,709,709,709,710,711,713,714,716,2047,2047,2047,2047,2047,2047,2047,2047,2047,2047,758,758,758,758,757,757,756,755,754,751,750,749,748,747,746,746,745,745,745,745,745,745,745,745,746,746,746,746,746,747,747,747,748,749,749,749,750,750,750,751,751,752,753,753,1030,1030,1034,1033,1031,1031,1030,1030,1030,1030,1029,1029,1029,1029,1029,1029,1028,1028,1029,1029,1029,1029,1028,1028,1028,1028,1028,1028,1028,1028,1028,1027,1027,1027,1027,1027,1027,1027,1027,1027,1026,1026,1026,1026,1026,1026,1026,1026,1026,1026,1025,1025,1025,1025,1024,1025,1025,1024,1024,1024,1025,1024,1024,1023,1024,1023,1023,1023,1023,1023,2047,2047,2047,2047,2047,2047,2047,2047,2047,2047,2047,2047,2047,2047,2047,2047,2047,2047,2047,2047,2047,2047,2047,2047,2047,2047,2047,2047,2047,2047,2047,2047,2047,2047,2047,2047,2047,2047,2047,2047,2047,2047,2047,2047,2047,2047,2047,2047,2047,2047,2047,2047,2047,2047,1025,1025,1026,1026,1025,1024,1025,1025,1025,1025,1026,1026,1026,1026,1025,1026,1025,1025,1025,1025,1025,1025,1025,1025,1025,1024,1024,1024,1024,1024,1024,1024,1024,1024,1023,1023,1023,1023,1022,1022,1022,1022,1022,1022,1022,1022,1022,1022,1022,1022,1022,1022,1022,1022,1022,1022,1022,1022,1022,1022,1022,1021,1021,1021,1021,1020,1020,1020,1020,1020,1019,1019,1019,1019,1020,1019,1019,1020,1021,1021,1019,1019,1019,1020,2047,2047,2047,2047,2047,2047,2047,2047,2047,2047,2047,2047,2047,2047,2047,2047,2047,2047,2047,2047,2047,2047,2047,2047,2047,2047,2047,2047,2047,2047,2047,2047
2047,2047,2047,2047,2047,2047,2047,2047,2047,2047,2047,2047,2047,2047,2047,2047,2047,2047,2047,2047,2047,2047,2047,2047,2047,2047,2047,2047,2047,2047,2047,2047,2047,2047,2047,2047,2047,2047,2047,2047,2047,2047,2047,2047,2047,2047,2047,2047,2047,2047,2047,2047,1012,1012,1012,1012,1011,1010,1011,2047,2047,2047,2047,2047,2047,2047,2047,2047,2047,2047,2047,2047,2047,2047,2047,2047,2047,2047,2047,2047,2047,2047,2047,2047,2047,2047,2047,2047,2047,2047,2047,2047,2047,2047,2047,2047,2047,2047,2047,704,704,701,701,700,699,698,697,696,695,694,692,691,690,689,689,688,688,687,686,686,685,684,684,681,681,681,681,680,680,680,681,680,680,679,678,677,677,677,676,676,675,675,675,675,675,675,675,674,673,673,673,672,672,672,672,672,672,672,673,673,673,673,673,673,673,673,672,672,672,671,672,672,671,671,672,671,671,671,671,671,671,671,671,671,672,671,671,671,671,671,671,671,671,671,672,671,672,672,672,672,672,672,672,672,671,671,672,672,672,672,672,672,672,672,672,671,671,671,671,671,671,672,672,672,672,672,672,672,672,672,672,672,672,673,673,673,673,673,673,673,673,673,673,674,674,674,675,674,675,675,676,676,676,677,677,677,677,678,679,680,681,681,681,681,681,681,682,682,682,683,684,684,684,684,684,684,684,684,684,684,684,684,685,685,685,685,685,686,686,686,686,685,686,686,686,686,686,687,687,688,688,688,688,688,689,689,689,689,690,690,691,691,692,692,692,693,694,695,695,696,696,697,697,697,697,698,699,699,699,700,701,701,702,704,705,706,707,707,708,709,709,710,710,711,711,714,2047,2047,2047,2047,2047,2047,2047,2047,2047,2047,758,758,758,758,757,757,756,755,753,751,749,749,747,746,746,746,745,745,745,745,745,745,745,745,746,746,746,746,746,746,746,747,747,748,748,749,749,750,750,751,751,752,752,752,1030,1030,1033,1032,1031,1030,1030,1030,1030,1029,1029,1029,1029,1029,1029,1029,1028,1028,1029,1029,1029,1029,1029,1028,1028,1028,1028,1028,1028,1028,1028,1028,1028,1028,1028,1027,1027,1027,1027,1027,1026,1026,1026,1026,1026,1026,1026,1026,1026,1026,1026,1025,1025,1025,1025,1025,1025,1024,1024,1023,1024,1024,1023,1023,1023,1023,1023,1023,1022,2047,2047,2047,2047,2047,2047,2047,2047,2047,2047,2047,2047,2047,2047,2047,2047,2047,2047,2047,2047,2047,2047,2047,2047,2047,2047,2047,2047,2047,2047,2047,2047,2047,2047,2047,2047,2047,2047,2047,2047,2047,2047,2047,2047,2047,2047,2047,2047,2047,2047,2047,2047,2047,2047,2047,1024,1025,1025,1025,1025,1025,1025,1025,1025,1025,1025,1025,1025,1026,1025,1025,1025,1025,1025,1025,1025,1025,1025,1025,1024,1024,1024,1024,1024,1023,1024,1024,1024,1024,1023,1023,1023,1023,1022,1022,1022,1022,1022,1023,1022,1022,1023,1022,1022,1021,1021,1021,1022,1022,1021,1022,1021,1022,1022,1022,1022,1021,1021,1021,1021,1020,1020,1020,1020,1020,1019,1018,1019,1019,1020,1020,1020,1020,1021,1021,1021,1021,1020,2047,2047,2047,2047,2047,2047,2047,2047,2047,2047,2047,2047,2047,2047,2047,2047,2047,2047,2047,2047,2047,2047,2047,2047,2047,2047,2047,2047,2047,2047,2047,2047,2047
2047,2047,2047,2047,2047,2047,2047,2047,2047,2047,2047,2047,2047,2047,2047,2047,2047,2047,2047,2047,2047,2047,2047,2047,2047,2047,2047,2047,2047,2047,2047,2047,2047,2047,2047,2047,2047,2047,2047,2047,2047,2047,2047,2047,2047,2047,2047,2047,2047,2047,2047,2047,2047,1012,1012,1012,1011,1010,1011,2047,2047,2047,2047,2047,2047,2047,2047,2047,2047,2047,2047,2047,2047,2047,2047,2047,2047,2047,2047,2047,2047,2047,2047,2047,2047,2047,2047,2047,2047,2047,2047,2047,2047,2047,2047,2047,2047,2047,704,704,703,701,701,699,698,697,697,696,694,693,690,690,689,688,688,687,687,686,686,685,684,683,683,681,681,681,681,681,680,681,680,680,679,678,677,677,677,677,676,675,675,675,675,675,674,674,674,674,673,673,672,672,672,672,672,672,672,672,672,673,673,673,673,673,673,673,672,672,672,671,671,671,671,671,671,671,671,671,670,670,670,670,670,671,671,671,671,671,671,671,671,670,670,671,671,671,672,672,672,672,672,672,672,671,670,670,670,671,671,671,671,672,672,672,671,671,671,671,671,671,671,671,672,672,672,672,672,672,672,672,672,672,672,673,673,673,673,673,673,673,673,673,673,674,674,674,675,675,675,676,676,676,677,677,677,678,678,678,679,680,681,681,681,681,681,681,681,682,682,682,683,684,684,684,684,684,684,684,684,684,684,684,684,685,685,685,685,685,685,685,685,685,685,685,685,686,686,686,686,687,687,687,688,688,688,688,689,689,689,689,689,690,691,691,691,692,693,694,695,696,696,696,697,697,697,698,698,698,699,699,700,701,701,703,705,706,706,707,708,708,709,709,710,710,711,2047,2047,2047,2047,2047,2047,2047,2047,2047,2047,758,758,758,757,758,757,757,756,755,753,751,748,747,746,746,745,745,745,744,745,745,745,745,745,745,746,746,746,746,746,746,746,746,747,748,748,748,749,749,750,750,750,751,751,751,751,1032,1032,1031,1031,1030,1030,1030,1030,1029,1029,1029,1029,1029,1029,1029,1028,1028,1029,1029,1029,1029,1029,1029,1028,1028,1028,1028,1029,1028,1028,1028,1028,1028,1028,1027,1027,1027,1027,1027,1026,1026,1026,1027,1026,1026,1026,1026,1026,1026,1026,1025,1025,1025,1025,1025,1025,1024,1024,1023,1023,1023,1023,1023,1022,1023,1023,1023,1022,2047,2047,2047,2047,2047,2047,2047,2047,2047,2047,2047,2047,2047,2047,2047,2047,2047,2047,2047,2047,2047,2047,2047,2047,2047,2047,2047,2047,2047,2047,2047,2047,2047,2047,2047,2047,2047,2047,2047,2047,2047,2047,2047,2047,2047,2047,2047,2047,2047,2047,2047,2047,2047,2047,2047,1024,1025,1025,1025,1025,1025,1025,1025,1025,1025,1025,1025,1025,1026,1025,1025,1025,1025,1025,1025,1025,1025,1025,1025,1024,1024,1024,1024,1024,1023,1024,1024,1024,1024,1023,1023,1023,1022,1022,1022,1022,1022,1022,1023,1022,1022,1023,1023,1022,1021,1021,1021,1022,1022,1021,1021,1022,1022,1022,1022,1022,1022,1022,1021,1021,1021,1021,1021,1021,1019,1019,1018,1019,1019,1020,1020,1020,1021,1021,1021,1021,1021,1021,1022,2047,2047,2047,2047,2047,2047,2047,2047,2047,2047,2047,2047,2047,2047,2047,2047,2047,2047,2047,2047,2047,2047,2047,2047,2047,2047,2047,2047,2047,2047,2047,2047
2047,2047,2047,2047,2047,2047,2047,2047,2047,2047,2047,2047,2047,2047,2047,2047,2047,2047,2047,2047,2047,2047,2047,2047,2047,2047,2047,2047,2047,2047,2047,2047,2047,2047,2047,2047,2047,2047,2047,2047,2047,2047,2047,2047,2047,2047,2047,2047,2047,2047,2047,2047,2047,2047,2047,2047,2047,2047,2047,2047,2047,2047,2047,2047,2047,2047,2047,2047,2047,2047,2047,2047,2047,2047,2047,2047,2047,2047,2047,2047,2047,2047,2047,2047,2047,2047,2047,2047,2047,2047,2047,2047,2047,2047,2047,2047,2047,2047,703,703,703,701,700,699,698,697,696,695,693,693,689,689,689,688,688,687,686,685,685,685,684,682,682,682,681,681,681,681,680,680,680,679,678,678,678,677,677,676,676,675,675,675,674,674,674,674,673,673,673,673,672,672,671,671,672,672,671,671,672,672,672,672,672,672,672,672,672,672,671,671,671,671,671,671,671,671,671,670,670,670,670,670,670,670,670,670,670,670,670,670,670,670,669,670,670,670,671,672,671,671,672,671,671,671,670,670,670,671,671,671,671,671,671,671,671,670,670,670,670,671,671,671,671,672,672,672,671,671,671,671,671,672,672,672,673,672,672,673,673,673,673,673,673,674,674,675,675,675,676,676,676,677,677,677,677,678,678,678,679,680,680,680,680,680,680,681,681,681,681,681,682,683,683,683,683,683,683,683,683,683,683,683,684,684,684,684,685,685,685,685,685,685,685,685,685,685,685,685,685,686,686,686,687,687,688,688,688,688,688,689,689,689,690,690,690,691,693,694,695,695,696,696,696,696,697,697,697,698,698,698,699,700,701,702,704,705,706,706,707,707,708,709,710,710,711,712,2047,2047,2047,2047,2047,2047,2047,2047,2047,2047,758,758,757,757,757,756,756,754,752,750,748,747,746,746,745,745,744,744,745,745,745,745,745,745,745,745,746,746,746,746,746,746,747,747,747,748,748,749,749,750,750,750,751,751,751,751,1032,1031,1030,1030,1030,1030,1030,1029,1029,1029,1029,1029,1029,1029,1029,1029,1029,1029,1028,1028,1028,1028,1028,1028,1028,1028,1029,1029,1028,1028,1028,1028,1028,1028,1027,1027,1027,1027,1026,1026,1026,1026,1026,1026,1026,1026,1026,1026,1026,1025,1025,1025,1025,1025,1025,1024,1024,1023,1023,1023,1023,1023,1023,1023,1023,1023,1022,2047,2047,2047,2047,2047,2047,2047,2047,2047,2047,2047,2047,2047,2047,2047,2047,2047,2047,2047,2047,2047,2047,2047,2047,2047,2047,2047,2047,2047,2047,2047,2047,2047,2047,2047,2047,2047,2047,2047,2047,2047,2047,2047,2047,2047,2047,2047,2047,2047,2047,2047,2047,2047,2047,2047,1024,1024,1026,1026,1025,1025,1026,1025,1025,1025,1025,1025,1025,1025,1025,1025,1025,1025,1025,1025,1025,1024,1025,1024,1024,1024,1023,1023,1023,1023,1023,1024,1024,1023,1022,1022,1022,1022,1022,1021,1022,1022,1022,1022,1022,1022,1022,1022,1022,1021,1022,1021,1022,1022,1021,1021,1021,1022,1021,1021,1022,1021,1021,1021,1021,1021,1021,1021,1020,1020,1019,1018,1019,1019,1020,1019,1020,1020,1021,1021,1021,1021,1020,1021,2047,2047,2047,2047,2047,2047,2047,2047,2047,2047,2047,2047,2047,2047,2047,2047,2047,2047,2047,2047,2047,2047,2047,2047,2047,2047,2047,2047,2047,2047,2047,2047
2047,2047,2047,2047,2047,2047,2047,2047,2047,2047,2047,2047,2047,2047,2047,2047,2047,2047,2047,2047,2047,2047,2047,2047,2047,2047,2047,2047,2047,2047,2047,2047,2047,2047,2047,2047,2047,2047,2047,2047,2047,2047,2047,2047,2047,2047,2047,2047,2047,2047,2047,2047,2047,2047,2047,2047,2047,2047,2047,2047,2047,2047,2047,2047,2047,2047,2047,2047,2047,2047,2047,2047,2047,2047,2047,2047,2047,2047,2047,2047,2047,2047,2047,2047,2047,2047,2047,2047,2047,2047,2047,2047,2047,2047,2047,2047,2047,2047,703,703,702,702,700,698,697,696,695,694,692,690,689,689,688,688,687,685,685,685,684,684,683,682,681,681,681,680,680,680,680,680,679,679,678,678,677,677,676,676,675,675,674,674,674,674,674,673,673,673,673,672,672,672,671,671,671,671,671,671,671,672,672,672,672,672,671,671,671,671,670,670,671,671,670,670,671,671,671,670,670,670,670,670,670,670,671,670,670,670,670,670,670,670,669,669,669,669,670,671,670,670,670,670,671,671,670,670,670,670,670,670,670,670,671,670,670,670,670,670,670,671,671,671,671,671,671,671,671,671,671,671,671,671,672,672,672,672,672,672,672,672,672,673,673,673,674,675,675,676,676,676,676,676,677,677,677,678,678,678,679,679,679,680,680,680,680,680,680,681,681,680,681,682,682,682,682,683,683,683,683,683,683,683,683,683,684,684,684,684,684,684,685,685,685,685,685,685,685,685,685,685,685,685,686,686,687,687,688,688,688,688,688,688,689,690,689,691,693,693,694,694,695,696,696,696,696,697,697,697,697,698,699,699,700,702,703,705,705,705,706,707,708,709,710,711,711,712,713,2047,2047,2047,2047,2047,2047,2047,2047,2047,758,758,757,757,757,756,755,754,752,749,747,746,745,745,745,744,744,743,744,745,745,745,745,745,745,745,745,745,746,746,746,746,746,747,747,747,748,748,749,750,750,750,750,750,751,751,1031,1030,1030,1030,1030,1030,1029,1029,1029,1029,1029,1029,1029,1029,1029,1029,1029,1029,1028,1028,1028,1028,1028,1028,1028,1028,1029,1028,1028,1028,1028,1028,1028,1026,1027,1027,1027,1027,1027,1026,1026,1027,1026,1027,1026,1026,1026,1026,1026,1026,1025,1025,1025,1025,1025,1024,1023,1023,1023,1023,1023,1023,1023,1023,1024,2047,2047,2047,2047,2047,2047,2047,2047,2047,2047,2047,2047,2047,2047,2047,2047,2047,2047,2047,2047,2047,2047,2047,2047,2047,2047,2047,2047,2047,2047,2047,2047,2047,2047,2047,2047,2047,2047,2047,2047,2047,2047,2047,2047,2047,2047,2047,2047,2047,2047,2047,2047,2047,2047,2047,2047,2047,1025,1025,1026,1026,1026,1026,1026,1026,1025,1025,1024,1025,1025,1025,1025,1025,1025,1025,1025,1025,1025,1024,1024,1024,1024,1024,1023,1023,1023,1023,1023,1023,1023,1022,1021,1022,1022,1022,1022,1022,1022,1022,1022,1022,1022,1022,1022,1022,1022,1022,1022,1022,1022,1022,1022,1021,1021,1021,1021,1021,1021,1021,1021,1020,1020,1020,1021,1021,1020,1020,1019,1019,1020,1020,1021,1020,1020,1021,1021,1021,1020,1020,1019,2047,2047,2047,2047,2047,2047,2047,2047,2047,2047,2047,2047,2047,2047,2047,2047,2047,2047,2047,2047,2047,2047,2047,2047,2047,2047,2047,2047,2047,2047,2047,2047,2047
2047,2047,2047,2047,2047,2047,2047,2047,2047,2047,2047,2047,2047,2047,2047,2047,2047,2047,2047,2047,2047,2047,2047,2047,2047,2047,2047,2047,2047,2047,2047,2047,2047,2047,2047,2047,2047,2047,2047,2047,2047,2047,2047,2047,2047,2047,2047,2047,2047,2047,2047,2047,2047,2047,2047,2047,2047,2047,2047,2047,2047,2047,2047,2047,2047,2047,2047,2047,2047,2047,2047,2047,2047,2047,2047,2047,2047,2047,2047,2047,2047,2047,2047,2047,2047,2047,2047,2047,2047,2047,2047,2047,2047,2047,2047,2047,2047,2047,701,701,701,700,700,697,697,696,695,695,693,690,689,689,688,688,687,686,685,684,684,683,682,682,681,681,680,680,680,680,680,680,679,679,678,678,677,677,676,676,675,674,674,674,673,673,673,673,673,672,672,672,672,671,671,671,671,671,671,671,671,671,671,671,671,671,671,671,671,671,670,670,670,670,670,670,670,670,670,669,669,669,669,669,669,670,670,670,670,670,670,670,670,669,669,669,669,669,670,670,670,670,670,670,670,670,670,669,669,670,670,670,670,670,670,670,670,670,669,670,670,670,671,671,671,671,671,671,670,670,670,670,671,671,671,672,672,672,672,672,672,672,672,672,672,673,674,674,675,675,675,676,676,676,676,677,677,678,678,678,678,678,679,679,680,680,679,680,680,680,680,680,681,681,682,682,682,682,682,682,682,682,682,682,682,682,683,683,683,683,684,684,684,684,684,685,684,685,684,684,684,684,685,685,685,686,687,687,687,687,687,688,688,688,688,689,689,690,691,693,693,693,694,695,695,696,696,696,696,697,697,697,697,698,700,702,702,704,705,705,705,706,707,708,709,710,711,711,712,2047,2047,2047,2047,2047,2047,2047,2047,2047,758,757,757,757,757,756,755,754,751,749,747,746,745,745,744,744,743,743,743,744,745,745,745,745,745,745,745,746,746,746,746,746,746,746,746,746,747,747,748,749,749,750,750,750,750,1029,1030,1030,1030,1030,1030,1030,1029,1029,1029,1029,1029,1029,1029,1029,1029,1029,1029,1028,1028,1028,1028,1028,1028,1028,1028,1028,1029,1028,1028,1028,1028,1028,1028,1027,1027,1027,1027,1027,1026,1026,1026,1026,1026,1026,1026,1026,1026,1026,1026,1026,1025,1025,1025,1025,1024,1023,1023,1022,1023,1023,1023,1023,1023,1023,2047,2047,2047,2047,2047,2047,2047,2047,2047,2047,2047,2047,2047,2047,2047,2047,2047,2047,2047,2047,2047,2047,2047,2047,2047,2047,2047,2047,2047,2047,2047,2047,2047,2047,2047,2047,2047,2047,2047,2047,2047,2047,2047,2047,2047,2047,2047,2047,2047,2047,2047,2047,2047,2047,2047,2047,2047,2047,1025,1025,1026,1026,1026,1026,1026,1026,1026,1025,1025,1025,1025,1025,1025,1025,1025,1025,1025,1025,1025,1024,1024,1024,1024,1022,1023,1023,1023,1023,1023,1023,1023,1023,1022,1023,1022,1022,1022,1022,1022,1022,1022,1022,1022,1022,1022,1022,1022,1022,1022,1022,1022,1022,1022,1020,1022,1022,1022,1020,1021,1021,1021,1020,1020,1020,1020,1020,1020,1020,1020,1019,1020,1020,1020,1020,1020,1020,1020,1020,1020,1021,1019,2047,2047,2047,2047,2047,2047,2047,2047,2047,2047,2047,2047,2047,2047,2047,2047,2047,2047,2047,2047,2047,2047,2047,2047,2047,2047,2047,2047,2047,2047,2047,2047,2047
2047,2047,2047,2047,2047,2047,2047,2047,2047,2047,2047,2047,2047,2047,2047,2047,2047,2047,2047,2047,2047,2047,2047,2047,2047,2047,2047,2047,2047,2047,2047,2047,2047,2047,2047,2047,2047,2047,2047,2047,2047,2047,2047,2047,2047,2047,2047,2047,2047,2047,2047,2047,2047,2047,2047,2047,2047,2047,2047,2047,2047,2047,2047,2047,2047,2047,2047,2047,2047,2047,2047,2047,2047,2047,2047,2047,2047,2047,2047,2047,2047,2047,2047,2047,2047,2047,2047,2047,2047,2047,2047,2047,2047,2047,2047,2047,2047,2047,700,700,700,700,698,697,695,694,693,692,689,689,688,688,687,686,684,684,683,682,682,682,681,680,680,680,679,679,679,679,678,678,678,677,677,677,676,676,676,675,674,673,673,673,673,673,672,672,672,672,672,671,671,671,671,670,670,670,670,670,669,670,670,669,669,669,669,669,669,670,669,669,669,669,669,669,669,668,669,668,669,669,669,669,669,669,669,669,669,669,669,668,669,669,668,668,668,668,668,669,668,668,669,669,669,669,669,669,669,669,669,669,669,669,669,669,669,669,669,669,669,669,669,670,670,670,669,669,669,669,669,670,670,670,670,670,671,671,672,672,672,672,672,672,672,673,673,673,673,673,674,675,675,676,676,676,677,677,677,677,677,677,678,678,678,678,678,679,678,679,679,679,679,680,680,680,681,681,681,681,681,681,681,681,681,681,681,681,681,681,682,683,683,684,683,683,683,683,683,683,683,683,684,684,685,685,686,687,687,687,688,688,688,689,689,690,690,691,692,692,693,693,693,693,694,694,694,695,696,696,696,696,697,698,699,701,702,703,703,703,704,705,706,707,710,711,711,712,712,713,2047,2047,2047,2047,2047,2047,2047,2047,755,754,754,754,754,753,752,750,746,745,744,743,742,742,742,742,742,742,742,742,742,742,742,743,743,743,743,743,744,744,744,744,744,745,745,745,746,746,746,747,748,748,748,749,1030,1029,1029,1029,1030,1030,1030,1029,1029,1029,1029,1029,1029,1029,1029,1029,1029,1029,1028,1028,1028,1028,1028,1029,1029,1029,1029,1029,1029,1028,1028,1027,1027,1026,1027,1026,1026,1026,1027,1026,1026,1026,1026,1026,1026,1026,1026,1026,1026,1026,1026,1025,1025,1025,1025,1025,1025,1024,1024,1023,1023,1023,1022,1022,1022,1024,1024,1024,2047,2047,2047,2047,2047,2047,2047,2047,2047,2047,2047,2047,2047,2047,2047,2047,2047,2047,2047,2047,2047,2047,2047,2047,2047,2047,2047,2047,2047,2047,2047,2047,2047,2047,2047,2047,2047,2047,2047,2047,2047,2047,2047,2047,2047,2047,2047,2047,2047,2047,2047,2047,2047,2047,1026,1025,1025,1025,1026,1025,1025,1026,1026,1026,1026,1026,1026,1026,1026,1026,1026,1026,1026,1026,1026,1026,1026,1026,1026,1025,1025,1024,1022,1022,1021,1021,1022,1022,1022,1022,1023,1023,1023,1023,1023,1022,1022,1022,1022,1022,1022,1022,1022,1022,1022,1022,1022,1021,1021,1021,1021,1021,1021,1021,1020,1021,1020,1021,1021,1021,1021,1021,1021,1019,1019,1019,1019,1019,1019,1020,1019,1020,1020,1021,1021,1021,1020,1020,1021,2047,2047,2047,2047,2047,2047,2047,2047,2047,2047,2047,2047,2047,2047,2047,2047,2047,2047,2047,2047,2047,2047,2047,2047,2047,2047,2047,2047,2047,2047,2047,2047,2047
2047,2047,2047,2047,2047,2047,2047,2047,2047,2047,2047,2047,2047,2047,2047,2047,2047,2047,2047,2047,2047,2047,2047,2047,2047,2047,2047,2047,2047,2047,2047,2047,2047,2047,2047,2047,2047,2047,2047,2047,2047,2047,2047,2047,2047,2047,2047,2047,2047,2047,2047,2047,2047,2047,2047,2047,2047,2047,2047,2047,2047,2047,2047,2047,2047,2047,2047,2047,2047,2047,2047,2047,2047,2047,2047,2047,2047,2047,2047,2047,2047,2047,2047,2047,2047,2047,2047,2047,2047,2047,2047,2047,2047,2047,2047,2047,2047,2047,700,700,700,698,698,696,695,694,693,692,689,689,688,688,687,685,685,683,682,681,681,681,680,679,679,679,678,678,678,678,678,678,677,677,677,676,676,675,675,674,673,673,673,673,672,672,672,672,672,672,671,671,670,670,671,670,670,670,670,670,670,669,670,669,669,669,669,669,670,670,669,669,669,668,669,668,668,668,668,668,668,668,669,669,669,669,669,669,669,669,668,668,668,668,668,668,668,668,668,668,668,668,668,668,668,668,668,669,668,669,669,669,669,669,669,669,669,669,669,669,669,669,669,669,669,669,669,669,669,669,669,669,669,669,670,670,671,671,671,672,672,672,672,672,672,673,673,673,673,673,673,674,674,675,675,676,676,677,677,677,677,677,677,677,677,678,678,678,678,679,679,679,679,679,680,680,680,680,681,681,681,681,681,681,681,681,681,681,681,681,681,682,682,683,682,682,682,682,681,681,682,682,683,683,684,684,685,686,686,686,687,688,688,688,689,689,690,690,692,692,692,692,693,693,693,694,694,695,696,696,696,696,696,697,697,700,701,702,703,703,703,704,706,706,708,710,710,711,712,2047,2047,2047,2047,2047,2047,2047,2047,2047,754,754,754,753,753,753,752,750,746,745,744,743,742,742,742,742,742,742,742,742,742,742,742,742,742,743,743,743,743,744,743,743,744,745,745,745,745,746,746,747,747,747,748,748,1029,1029,1029,1030,1029,1029,1029,1029,1029,1029,1029,1029,1029,1029,1029,1029,1029,1029,1029,1029,1029,1029,1029,1029,1029,1029,1029,1029,1029,1029,1028,1027,1027,1026,1027,1026,1026,1026,1026,1026,1026,1026,1026,1026,1026,1026,1026,1026,1026,1025,1025,1025,1025,1025,1025,1024,1024,1024,1024,1024,1024,1024,1024,1024,1023,1025,1025,1025,2047,2047,2047,2047,2047,2047,2047,2047,2047,2047,2047,2047,2047,2047,2047,2047,2047,2047,2047,2047,2047,2047,2047,2047,2047,2047,2047,2047,2047,2047,2047,2047,2047,2047,2047,2047,2047,2047,2047,2047,2047,2047,2047,2047,2047,2047,2047,2047,2047,2047,2047,2047,2047,2047,1027,1026,1026,1025,1026,1025,1025,1026,1026,1026,1026,1026,1026,1026,1026,1026,1026,1026,1026,1026,1026,1026,1026,1026,1026,1025,1025,1025,1022,1022,1022,1022,1022,1022,1023,1023,1023,1023,1024,1023,1023,1023,1022,1022,1022,1022,1022,1021,1022,1022,1022,1022,1022,1022,1021,1022,1022,1021,1021,1021,1021,1021,1021,1021,1020,1021,1021,1021,1021,1020,1019,1019,1019,1019,1019,1019,1019,1020,1020,1021,1021,1021,1020,1020,1021,2047,2047,2047,2047,2047,2047,2047,2047,2047,2047,2047,2047,2047,2047,2047,2047,2047,2047,2047,2047,2047,2047,2047,2047,2047,2047,2047,2047,2047,2047,2047,2047,2047
2047,2047,2047,2047,2047,2047,2047,2047,2047,2047,2047,2047,2047,2047,2047,2047,2047,2047,2047,2047,2047,2047,2047,2047,2047,2047,2047,2047,2047,2047,2047,2047,2047,2047,2047,2047,2047,2047,2047,2047,2047,2047,2047,2047,2047,2047,2047,2047,2047,2047,2047,2047,2047,2047,2047,2047,2047,2047,2047,2047,2047,2047,2047,2047,2047,2047,2047,2047,2047,2047,2047,2047,2047,2047,2047,2047,2047,2047,2047,2047,2047,2047,2047,2047,2047,2047,2047,2047,2047,2047,2047,2047,2047,2047,2047,2047,2047,701,699,699,698,697,697,696,695,694,693,691,689,688,688,687,686,685,684,682,682,681,681,680,680,679,678,678,678,678,677,678,677,677,677,677,676,676,676,675,674,674,673,673,673,673,672,672,672,672,672,672,671,671,670,670,670,670,670,670,670,669,670,669,669,669,669,669,668,669,669,669,669,668,668,668,668,668,668,667,668,668,668,668,668,668,668,669,669,669,669,669,668,668,668,668,668,668,668,668,667,668,667,667,667,668,667,668,668,668,668,668,669,669,669,668,668,668,668,669,668,668,669,669,669,669,669,669,669,669,669,669,669,669,669,669,669,669,670,671,671,672,672,672,672,672,672,672,672,673,673,673,673,674,674,675,675,675,676,677,677,677,677,677,677,677,677,677,677,678,677,678,678,678,678,678,679,679,680,680,680,680,680,680,680,680,680,680,680,680,680,680,681,681,681,681,681,681,680,681,681,681,681,681,682,683,684,684,685,685,685,685,686,687,688,688,688,689,689,690,691,692,692,692,692,693,693,694,694,695,695,696,696,696,696,696,697,699,701,702,702,703,703,704,704,705,706,709,710,711,712,2047,2047,2047,2047,2047,2047,2047,2047,2047,754,754,754,753,753,753,752,751,747,745,743,743,742,742,742,742,742,742,742,742,742,742,742,742,742,742,742,742,743,743,743,743,743,744,745,745,745,746,746,747,747,747,747,748,1030,1029,1029,1029,1029,1029,1029,1029,1029,1029,1029,1029,1029,1029,1029,1029,1029,1028,1028,1028,1028,1028,1028,1029,1029,1029,1029,1029,1029,1029,1028,1027,1027,1027,1026,1026,1026,1026,1026,1026,1026,1026,1026,1026,1026,1026,1026,1026,1026,1026,1025,1025,1025,1025,1025,1025,1025,1025,1024,1024,1024,1024,1024,1024,1024,1025,1024,2047,2047,2047,2047,2047,2047,2047,2047,2047,2047,2047,2047,2047,2047,2047,2047,2047,2047,2047,2047,2047,2047,2047,2047,2047,2047,2047,2047,2047,2047,2047,2047,2047,2047,2047,2047,2047,2047,2047,2047,2047,2047,2047,2047,2047,2047,2047,2047,2047,2047,2047,2047,2047,2047,2047,2047,1026,1026,1025,1026,1025,1025,1025,1025,1026,1025,1026,1025,1025,1026,1026,1025,1025,1026,1025,1026,1026,1026,1026,1025,1025,1025,1025,1025,1022,1022,1022,1022,1023,1023,1023,1024,1024,1024,1024,1023,1023,1022,1022,1022,1022,1022,1022,1022,1022,1022,1022,1022,1022,1022,1022,1021,1021,1022,1022,1021,1021,1020,1020,1020,1021,1021,1020,1020,1020,1020,1019,1019,1019,1019,1020,1020,1020,1020,1020,1020,1020,1020,1020,1018,2047,2047,2047,2047,2047,2047,2047,2047,2047,2047,2047,2047,2047,2047,2047,2047,2047,2047,2047,2047,2047,2047,2047,2047,2047,2047,2047,2047,2047,2047,2047,2047,2047
2047,2047,2047,2047,2047,2047,2047,2047,2047,2047,2047,2047,2047,2047,2047,2047,2047,2047,2047,2047,2047,2047,2047,2047,2047,2047,2047,2047,2047,2047,2047,2047,2047,2047,2047,2047,2047,2047,2047,2047,2047,2047,2047,2047,2047,2047,2047,2047,2047,2047,2047,2047,2047,2047,2047,2047,2047,2047,2047,2047,2047,2047,2047,2047,2047,2047,2047,2047,2047,2047,2047,2047,2047,2047,2047,2047,2047,2047,2047,2047,2047,2047,2047,2047,2047,2047,2047,2047,2047,2047,2047,2047,2047,2047,2047,2047,2047,2047,2047,700,697,696,696,695,695,694,693,692,689,688,688,686,685,684,683,681,681,680,680,680,679,678,678,678,677,678,677,677,677,677,676,676,676,675,676,674,674,673,673,673,673,672,672,672,672,672,672,671,671,670,669,669,669,669,669,669,669,669,669,669,669,669,669,668,668,669,669,669,668,668,668,668,668,668,668,667,668,668,668,668,668,668,668,668,669,668,668,668,668,668,668,668,667,667,667,667,666,667,667,667,667,667,667,667,668,668,668,668,668,668,668,668,668,668,668,668,668,668,668,668,669,669,669,669,669,669,669,669,669,669,669,669,669,670,671,671,672,672,672,672,672,672,672,672,672,673,673,673,673,674,674,674,674,675,676,676,677,676,677,676,677,677,677,677,677,677,677,677,677,678,677,677,678,678,679,679,679,680,680,680,680,680,680,680,680,680,680,679,680,680,680,680,680,680,680,681,680,680,681,681,682,682,683,684,684,685,685,685,686,687,687,688,688,688,689,690,690,691,692,692,692,692,693,693,693,694,695,696,696,696,696,696,697,698,700,701,702,702,703,703,704,705,706,710,711,712,713,2047,2047,2047,2047,2047,2047,2047,2047,2047,754,754,754,753,753,753,752,750,747,744,743,742,742,742,742,742,742,742,742,742,742,742,741,742,742,742,742,742,743,743,743,743,743,743,744,745,745,746,746,746,747,747,747,747,747,1029,1029,1029,1029,1029,1029,1029,1029,1029,1029,1029,1029,1029,1029,1029,1029,1029,1029,1029,1029,1028,1028,1029,1029,1029,1029,1029,1029,1028,1028,1027,1027,1027,1027,1026,1026,1026,1026,1026,1026,1026,1026,1026,1026,1026,1026,1026,1026,1025,1025,1025,1025,1025,1025,1025,1025,1025,1025,1024,1024,1024,1024,1025,1024,1025,1025,2047,2047,2047,2047,2047,2047,2047,2047,2047,2047,2047,2047,2047,2047,2047,2047,2047,2047,2047,2047,2047,2047,2047,2047,2047,2047,2047,2047,2047,2047,2047,2047,2047,2047,2047,2047,2047,2047,2047,2047,2047,2047,2047,2047,2047,2047,2047,2047,2047,2047,2047,2047,2047,2047,2047,2047,2047,1026,1025,1025,1025,1025,1025,1025,1025,1025,1025,1025,1025,1026,1026,1026,1025,1025,1025,1025,1026,1025,1025,1025,1024,1023,1023,1022,1023,1022,1022,1022,2047,1024,1024,1024,1023,1024,1023,1023,1023,1023,1022,1022,1022,1022,1022,1022,1022,1022,1022,1022,1022,1022,1022,1021,1021,1021,1021,1021,1020,1020,1021,1021,1021,1021,1021,1021,1020,1020,1020,1019,1019,1019,1020,1020,1020,1020,1018,1018,1020,1019,1019,1018,1018,2047,2047,2047,2047,2047,2047,2047,2047,2047,2047,2047,2047,2047,2047,2047,2047,2047,2047,2047,2047,2047,2047,2047,2047,2047,2047,2047,2047,2047,2047,2047,2047
2047,2047,2047,2047,2047,2047,2047,2047,2047,2047,2047,2047,2047,2047,2047,2047,2047,2047,2047,2047,2047,2047,2047,2047,2047,2047,2047,2047,2047,2047,2047,2047,2047,2047,2047,2047,2047,2047,2047,2047,2047,2047,2047,2047,2047,2047,2047,2047,2047,2047,2047,2047,2047,2047,2047,2047,2047,2047,2047,2047,2047,2047,2047,2047,2047,2047,2047,2047,2047,2047,2047,2047,2047,2047,2047,2047,2047,2047,2047,2047,2047,2047,2047,2047,2047,2047,2047,2047,2047,2047,2047,2047,2047,2047,2047,2047,2047,2047,2047,2047,2047,2047,695,695,694,693,693,692,692,688,687,685,684,683,682,681,680,680,680,679,678,678,678,677,677,677,676,677,676,676,676,675,675,675,675,674,674,673,673,672,673,672,672,672,672,672,671,671,670,670,669,669,669,668,668,669,669,669,669,669,669,669,669,669,668,668,668,668,668,668,668,668,668,668,667,667,667,667,667,666,666,667,667,668,668,668,668,668,668,667,668,668,667,667,667,666,666,666,666,666,666,666,666,666,667,667,668,668,668,668,668,668,668,668,668,668,668,668,668,668,668,669,669,669,669,669,668,669,668,668,669,669,669,669,670,670,671,672,671,672,672,672,672,672,672,673,673,673,673,674,674,675,674,675,675,676,676,676,676,676,676,676,677,677,677,677,677,677,677,677,677,677,677,677,678,678,679,679,679,679,679,679,680,679,679,679,679,679,679,680,680,680,680,680,680,680,680,680,680,681,681,681,682,683,684,684,684,685,686,687,687,687,688,688,689,689,690,691,692,692,692,692,693,693,693,694,694,695,695,695,696,696,696,698,699,700,701,702,702,703,703,704,705,708,710,711,712,713,2047,2047,2047,2047,2047,2047,2047,2047,754,754,754,753,753,753,752,751,747,744,743,742,742,742,742,741,741,741,741,741,741,741,741,741,741,742,742,742,742,742,742,742,742,743,743,744,745,746,746,747,747,747,747,747,747,1029,1029,1029,1029,1029,1029,1029,1029,1029,1029,1029,1029,1029,1029,1029,1029,1029,1029,1029,1029,1028,1028,1029,1029,1029,1029,1029,1029,1029,1028,1027,1027,1027,1026,1026,1026,1026,1026,1026,1026,1026,1026,1026,1026,1026,1026,1026,1025,1025,1025,1025,1025,1025,1025,1024,1025,1025,1025,1024,1024,1024,1024,1024,1024,1024,1024,2047,2047,2047,2047,2047,2047,2047,2047,2047,2047,2047,2047,2047,2047,2047,2047,2047,2047,2047,2047,2047,2047,2047,2047,2047,2047,2047,2047,2047,2047,2047,2047,2047,2047,2047,2047,2047,2047,2047,2047,2047,2047,2047,2047,2047,2047,2047,2047,2047,2047,2047,2047,2047,2047,2047,2047,2047,1027,1026,1026,1025,1025,1025,1025,1025,1025,1025,1025,1025,1025,1025,1025,1025,1026,1026,1026,1026,1026,1026,1025,1025,1025,1025,1025,1025,1023,1023,1025,1025,1024,1024,1024,1023,1024,1023,1023,1023,1023,1023,1023,1023,1023,1023,1023,1022,1022,1023,1023,1022,1022,1022,1022,1022,1022,1021,1021,1021,1020,1021,1021,1021,1021,1021,1021,1020,1020,1020,1020,1019,1019,1020,1019,1019,1019,1017,1019,1019,1019,1018,1018,1018,2047,2047,2047,2047,2047,2047,2047,2047,2047,2047,2047,2047,2047,2047,2047,2047,2047,2047,2047,2047,2047,2047,2047,2047,2047,2047,2047,2047,2047,2047,2047,2047
2047,2047,2047,2047,2047,2047,2047,2047,2047,2047,2047,2047,2047,2047,2047,2047,2047,2047,2047,2047,2047,2047,2047,2047,2047,2047,2047,2047,2047,2047,2047,2047,2047,2047,2047,2047,2047,2047,2047,2047,2047,2047,2047,2047,2047,2047,2047,2047,2047,2047,2047,2047,2047,2047,2047,2047,2047,2047,2047,2047,2047,2047,2047,2047,2047,2047,2047,2047,2047,2047,2047,2047,2047,2047,2047,2047,2047,2047,2047,2047,2047,2047,2047,2047,2047,2047,2047,2047,2047,2047,2047,2047,2047,2047,2047,2047,2047,2047,2047,2047,2047,2047,695,694,694,693,691,690,689,688,686,685,683,681,680,680,679,679,679,678,678,677,677,677,676,676,676,676,676,675,674,674,674,673,674,673,673,672,672,672,672,672,672,672,672,672,671,671,669,670,669,669,669,668,668,668,668,668,669,669,669,669,668,668,668,668,668,668,668,668,668,668,668,667,667,667,667,667,667,666,666,666,666,667,667,667,667,668,667,667,667,667,666,666,666,666,665,666,666,666,666,666,665,665,667,666,667,667,667,667,668,668,668,668,668,668,667,668,668,668,668,668,668,668,668,668,668,668,668,668,668,669,669,669,669,670,671,671,671,672,672,672,672,672,672,672,672,673,673,674,673,674,673,674,675,675,676,675,676,675,676,676,676,676,676,676,676,677,677,677,677,677,677,677,677,677,678,678,678,678,678,678,678,678,678,678,678,678,678,679,679,679,679,679,679,680,680,680,680,680,681,681,681,682,683,683,684,684,685,686,687,687,688,688,689,689,690,690,691,691,692,692,693,693,693,693,694,695,695,695,695,696,696,698,698,699,701,702,702,703,703,704,705,707,709,710,712,712,2047,2047,2047,2047,2047,2047,2047,2047,755,754,754,754,753,753,752,751,748,745,743,742,742,742,741,741,741,741,741,741,741,741,741,741,741,741,741,742,742,742,742,742,742,742,743,744,745,746,746,747,747,747,747,747,747,1029,1029,1029,1029,1029,1029,1029,1029,1029,1029,1029,1029,1029,1029,1029,1028,1029,1028,1028,1028,1028,1027,1029,1029,1029,1029,1029,1029,1028,1028,1027,1026,1026,1026,1026,1026,1026,1027,1026,1026,1026,1027,1026,1026,1026,1026,1026,1025,1025,1025,1025,1025,1025,1025,1024,1024,1025,1025,1025,1024,1024,1024,1024,1024,1024,1024,1024,2047,2047,2047,2047,2047,2047,2047,2047,2047,2047,2047,2047,2047,2047,2047,2047,2047,2047,2047,2047,2047,2047,2047,2047,2047,2047,2047,2047,2047,2047,2047,2047,2047,2047,2047,2047,2047,2047,2047,2047,2047,2047,2047,2047,2047,2047,2047,2047,2047,2047,2047,2047,2047,2047,2047,2047,2047,1026,1026,1025,1025,1025,1025,1025,1025,1025,1025,1025,1025,1025,1025,1025,1026,1026,1026,1026,1025,1025,1025,1025,1025,1025,1025,2047,2047,2047,1025,1025,1025,1025,1024,1024,1024,1024,1024,1024,1024,1023,1023,1024,1023,1023,1023,1022,1023,1023,1023,1023,1022,1022,1022,1021,1021,1021,1021,1021,1021,1021,1021,1021,1021,1021,1021,1020,1020,1019,1020,1019,1019,1019,1019,1019,1019,1018,1018,1018,1018,1018,1018,1017,2047,2047,2047,2047,2047,2047,2047,2047,2047,2047,2047,2047,2047,2047,2047,2047,2047,2047,2047,2047,2047,2047,2047,2047,2047,2047,2047,2047,2047,2047,2047,2047
2047,2047,2047,2047,2047,2047,2047,2047,2047,2047,2047,2047,2047,2047,2047,2047,2047,2047,2047,2047,2047,2047,2047,2047,2047,2047,2047,2047,2047,2047,2047,2047,2047,2047,2047,2047,2047,2047,2047,2047,2047,2047,2047,2047,2047,2047,2047,2047,2047,2047,2047,2047,2047,2047,2047,2047,2047,2047,2047,2047,2047,2047,2047,2047,2047,2047,2047,2047,2047,2047,2047,2047,2047,2047,2047,2047,2047,2047,2047,2047,2047,2047,2047,2047,2047,2047,2047,2047,2047,2047,2047,2047,2047,2047,2047,2047,2047,2047,2047,2047,2047,2047,693,693,693,692,692,690,689,689,686,681,681,680,679,679,678,678,678,678,677,676,676,676,676,676,675,675,675,675,674,674,673,673,673,673,673,672,672,672,672,672,672,671,671,671,670,670,669,669,669,669,668,668,668,668,668,668,668,668,668,668,667,667,665,667,665,665,665,667,667,667,667,667,667,666,666,666,666,665,665,665,665,666,666,665,666,667,667,666,666,666,666,666,666,666,665,666,666,666,666,666,666,666,666,666,666,665,666,666,667,667,667,667,667,667,667,668,668,668,668,668,668,669,669,668,668,668,668,668,668,669,669,669,669,670,671,671,671,671,671,671,671,671,671,672,672,672,672,673,672,673,673,673,674,674,675,674,675,675,675,675,676,676,676,676,676,676,676,676,676,676,676,676,676,676,676,677,677,677,677,677,677,677,677,677,677,677,677,677,677,678,678,678,679,679,679,680,680,680,680,681,681,681,682,682,682,684,684,685,685,685,686,687,687,688,689,689,690,690,691,691,692,692,693,693,694,694,695,695,696,696,696,697,698,699,700,701,702,703,704,705,706,708,709,710,711,2047,2047,2047,2047,2047,2047,2047,2047,2047,751,751,751,750,749,749,749,742,740,739,739,738,738,738,738,738,738,738,738,738,738,738,738,738,738,738,738,738,738,739,739,740,741,741,742,742,743,744,745,745,745,745,745,745,745,1029,1029,1029,1029,1028,1029,1028,1028,1029,1029,1029,1029,1029,1028,1029,1028,1028,1028,1028,1028,1028,1028,1029,1029,1029,1029,1029,1029,1029,1028,1028,1027,1027,1026,1026,1026,1026,1027,1026,1026,1026,1027,1026,1027,1026,1026,1026,1026,1026,1025,1025,1024,1024,1025,1025,1025,1025,1025,1025,1024,1024,1024,1024,1024,1022,1022,1022,2047,2047,2047,2047,2047,2047,2047,2047,2047,2047,2047,2047,2047,2047,2047,2047,2047,2047,2047,2047,2047,2047,2047,2047,2047,2047,2047,2047,2047,2047,2047,2047,2047,2047,2047,2047,2047,2047,2047,2047,2047,2047,2047,2047,2047,2047,2047,2047,2047,2047,2047,2047,2047,2047,2047,2047,2047,1026,1026,1026,1026,1026,1026,1026,1026,1025,1025,1025,1024,1023,1024,1024,1024,1025,1025,1025,1025,1025,1025,1025,1025,1025,1025,1025,1025,1023,1023,1023,1024,1024,1023,1023,1023,1022,1022,1022,1022,1022,1022,1022,1022,1022,1021,1021,1021,1021,1021,1021,1021,1021,1021,1021,1021,1021,1021,1021,1021,1021,1021,1021,1021,1021,1021,1021,1020,1019,1019,1019,1020,1020,1021,1021,1020,1020,1020,1019,1019,1018,1017,1016,2047,2047,2047,2047,2047,2047,2047,2047,2047,2047,2047,2047,2047,2047,2047,2047,2047,2047,2047,2047,2047,2047,2047,2047,2047,2047,2047,2047,2047,2047,2047,2047
