248,248,248,248,248,248,248,248,248,248,248,248,248,248,248,255,255,255,255,255,255,255,255,245,245,245,245,245,245,245,245,245,245,245,245,245,245,249,249,249,248,248,248,248,248,248,248,248,248,248,248,248,248,248,248,249,249,249,249,249,249,249,249,249,249,249,249,249,249,249,249,249,249,249,249,249,249,249,249,249,249,249,249,249,249,249,249,249,249,249,249,249,249,249,249,249,249,249,249,249,250,250,250,250,250,250,250,250,250,250,250,250,250,250,250,250,250,250,250,250,250,250,250,250,250,250,250,250,250,250,250,250,250,250,250,250,250,250,250,250,250,250,250,250,250,250,250,250,250,250,250,250,250,250,250,250,250,250,250,250,250,250,250,250,250,250,250,250,250,250,250,250,250,250,250,250,250,250,250,250,250,250,250,250,250,250,250,250,250,250,250,250,250,250,250,250,250,250,250,250,250,250,250,250,255,255,250,250,250,250,250,250,250,250,250,250,250,250,251,251,251,251,251,251,251,251,251,251,251,251,251,251,251,251,251,251,251,251,251,251,251,251,251,251,251,251,251,251,251,251,251,251,251,252,252,252,251,251,252,252,252,252,252,252,252,252,252,252,252,252,252,252,252,252,252,252,252,252,252,252,252,252,252,252,252,252,252,252,252,252,252,252,252,252,252,252,252,252,252,252,252,252,252,252,252,252,252,252,252,252,252,252,253,253,253,255,255,255,255,255,255,255,255,255,255,255,255,255,255,255,255,255,255,255,255,255,255,255,255,255,255,255,255,255,255,255,255,255,255,255,255,255,255,255,255,255,255,255,255,255,255,255,255,255,255,255,255,255,255,255,255,255,255,255,255,255,255,255,255,255,255,255,255,255,255,255,255,255,255,255,255,255,255,255,255,255,255,255,255,255,255,255,255,95,95,94,94,95,95,94,94,95,94,95,95,95,95,95,95,95,95,94,94,94,94,94,94,94,94,94,94,94,94,94,94,94,93,93,93,93,93,93,93,255,255,255,255,255,255,91,91,91,90,90,90,90,90,90,90,90,90,89,89,89,89,89,89,89,89,89,89,89,89,89,89,89,89,89,89,89,89,89,89,89,89,89,255,255,255,255,255,255,89,89,89,89,89,89,89,89,89,89,89,89,89,89,89,89,89,89,255,255,255,255,255,255,255,255,255,255,255,255,255,255,255,255,255,255,255,255,255,255,255,255,255,255,255,255,255,255,255,255,255,255,255,255,255,255,255,255,255,255,255,255,255,255,255,255,255,255,255,255,255,255,255,255,255,104,104,104,104,105,105,105,105,105,106,106,255,107,107,108,255,255,255,255,255,255,255,255,255,255,255,255,255,255,255,255,255,255,255,255,255,255,255,255,255,255,255,255,255,255,255,107,107,107,107,107,106,106,106,105,105,105,105,105,105,105,105,105,105,105,255,255,255,255,255,255,255,255
248,248,248,248,248,248,248,248,248,248,248,248,248,248,248,255,255,255,255,255,255,255,255,245,245,245,245,245,245,245,245,245,245,245,245,245,245,249,249,249,248,248,248,248,249,248,248,248,248,248,248,248,248,248,249,249,249,249,249,249,249,249,249,249,249,249,249,249,249,249,249,249,249,249,249,249,249,249,249,249,249,249,249,249,249,249,249,249,249,249,249,249,249,249,250,249,249,250,250,250,250,250,250,250,250,250,250,250,250,250,250,250,250,250,250,250,250,250,250,250,250,250,250,250,250,250,250,250,250,250,250,250,250,250,250,250,250,250,250,250,250,250,250,250,250,250,250,250,250,250,250,250,250,250,250,250,250,250,250,250,250,250,250,250,250,250,250,250,250,250,250,250,250,250,250,250,250,250,250,250,250,250,250,250,250,250,250,250,250,250,250,250,250,250,250,250,250,250,250,250,250,250,250,250,250,255,255,255,250,250,250,250,250,250,250,251,251,251,251,251,251,251,251,251,251,251,251,251,251,251,251,251,251,251,251,251,251,251,251,251,251,251,251,251,251,251,251,251,251,252,251,251,251,252,252,252,252,252,252,252,252,252,252,252,252,252,252,252,252,252,252,252,252,252,252,252,252,252,252,252,252,252,252,252,252,252,252,252,252,252,252,252,252,252,252,252,252,252,252,252,252,252,252,252,252,252,252,252,253,252,252,252,253,253,253,253,255,255,255,255,255,255,255,255,255,255,255,255,255,255,255,255,255,255,255,255,255,255,255,255,255,255,255,255,255,255,255,255,255,255,255,255,255,255,255,255,255,255,255,255,255,255,255,255,255,255,255,255,255,255,255,255,255,255,255,255,255,255,255,255,255,255,255,255,255,255,255,255,255,255,255,255,255,255,255,255,255,255,255,255,255,255,255,94,95,94,95,95,95,95,95,95,95,95,95,95,95,95,95,95,95,94,94,94,94,94,94,94,94,94,94,94,94,93,94,93,93,93,93,93,93,92,92,255,255,255,255,255,255,255,91,91,90,90,90,90,90,90,90,90,90,89,89,89,89,89,89,89,89,89,89,89,89,89,89,89,89,89,89,89,89,89,89,89,89,89,89,255,255,255,255,255,89,89,89,89,89,89,89,89,89,89,89,89,89,89,89,89,89,89,255,255,255,255,255,255,255,255,255,255,255,255,255,255,255,255,255,255,255,255,255,255,255,255,255,255,255,255,255,255,255,255,255,255,255,255,255,255,255,255,255,255,255,255,255,255,255,255,255,101,101,255,255,255,255,255,103,104,104,104,104,104,105,105,105,105,106,106,106,107,107,107,255,255,255,255,255,255,255,255,255,255,255,255,255,255,255,255,255,255,255,255,255,255,255,255,255,255,255,255,255,255,255,107,107,107,107,106,106,106,105,105,105,104,104,104,104,104,104,104,104,104,255,255,255,255,255,255,255,255
248,248,248,248,248,248,248,248,248,248,248,248,248,248,247,255,255,255,255,255,255,255,245,245,245,245,245,245,245,245,245,245,245,245,245,245,245,249,249,249,248,248,248,249,249,248,249,248,249,249,249,249,249,249,249,249,249,249,249,249,249,249,249,249,249,249,249,249,249,249,249,249,249,249,249,249,249,249,249,249,249,249,249,249,249,249,249,249,249,249,249,249,249,249,250,250,250,250,250,250,250,250,250,250,250,250,250,250,250,250,250,250,250,250,250,250,250,250,250,250,250,250,250,250,250,250,250,250,250,250,250,250,250,250,250,250,250,250,250,250,250,250,250,250,250,250,250,250,250,250,250,250,250,250,250,250,250,250,250,250,250,250,250,250,250,250,250,250,250,250,250,250,250,250,250,250,250,250,250,250,250,250,250,250,250,250,250,250,250,250,250,250,250,250,250,250,250,250,250,250,250,250,250,250,250,250,255,255,251,255,251,251,251,251,251,251,251,251,251,251,251,251,251,251,251,251,251,251,251,251,251,251,251,251,251,251,251,251,251,251,251,251,251,251,251,251,251,251,251,252,252,252,252,252,252,252,252,252,252,252,252,252,252,252,252,252,252,252,252,252,252,252,252,252,252,252,252,252,252,252,252,252,252,252,252,252,252,252,252,252,252,252,252,252,252,252,252,252,252,252,252,252,253,252,252,252,253,252,253,253,253,253,253,253,253,253,255,255,255,255,255,255,255,255,255,255,255,255,255,255,255,255,255,255,255,255,255,255,255,255,255,255,255,255,255,255,255,255,255,255,255,255,255,255,255,255,255,255,255,255,255,255,255,255,255,255,255,255,255,255,255,255,255,255,255,255,255,255,255,255,255,255,255,255,255,255,255,255,255,255,255,255,255,255,255,255,255,255,255,255,255,255,255,255,95,95,95,95,95,95,95,95,95,95,95,95,95,95,95,95,95,94,94,94,94,94,94,94,94,94,94,94,94,93,93,93,93,93,93,93,92,92,92,255,255,255,255,255,255,255,255,90,90,90,90,90,90,90,90,90,90,89,89,89,89,89,89,89,89,89,89,89,89,89,89,89,89,89,89,89,89,89,89,89,89,89,255,255,255,255,255,255,255,255,90,89,89,89,89,89,89,89,89,89,89,89,89,89,89,255,255,255,255,255,255,255,255,255,255,255,255,255,255,255,255,255,255,255,255,255,255,255,255,255,255,255,255,255,255,255,255,255,255,255,255,255,255,255,255,255,255,255,255,255,255,255,255,255,101,101,101,101,101,102,102,255,103,103,104,104,104,104,104,105,105,105,106,106,106,106,107,107,255,255,255,255,255,255,255,255,255,255,255,255,255,255,255,255,255,255,255,255,255,255,255,255,255,255,255,255,255,255,255,107,107,107,107,106,106,105,105,105,104,104,104,104,104,104,104,104,104,104,255,255,255,255,255,255,255,255
248,248,248,248,248,248,248,248,248,248,248,248,248,248,248,255,255,255,255,255,255,255,245,245,245,245,245,245,245,245,245,245,245,245,245,245,245,249,249,249,249,249,249,249,249,249,249,249,249,249,249,249,249,249,249,249,249,249,249,249,249,249,249,249,249,249,249,249,249,249,249,249,249,249,249,249,249,249,249,249,249,249,249,249,249,249,249,249,250,250,250,250,250,250,250,250,250,250,250,250,250,250,250,250,250,250,250,250,250,250,250,250,250,250,250,250,250,250,250,250,250,250,250,250,250,250,250,250,250,250,250,250,250,250,250,250,250,250,250,250,250,250,250,250,250,250,250,250,250,250,250,250,250,250,250,250,250,250,250,250,250,250,250,250,250,250,250,250,250,250,250,250,250,250,250,250,250,250,250,250,250,250,250,250,250,250,250,250,250,250,251,251,251,251,250,250,250,250,250,250,250,250,250,250,250,250,255,251,251,251,251,251,251,251,251,251,251,251,251,251,251,251,251,251,251,251,251,251,251,251,251,251,251,251,251,251,251,251,251,251,251,252,252,252,252,252,251,252,252,252,252,252,252,252,252,252,252,252,252,252,252,252,252,252,252,252,252,252,252,252,252,252,252,252,252,252,252,252,252,252,252,252,252,252,252,252,252,252,252,252,252,252,252,252,252,252,253,252,253,253,252,253,253,253,253,253,253,253,253,253,253,253,253,253,253,253,253,255,255,255,255,255,255,255,255,255,255,255,255,255,255,255,255,255,255,255,255,255,255,255,255,255,255,255,255,255,255,255,255,255,255,255,255,255,255,255,255,255,255,255,255,255,255,255,255,255,255,255,255,255,255,255,255,255,255,255,255,255,255,255,255,255,255,255,255,255,255,255,255,255,255,255,255,255,255,255,255,255,255,255,255,255,255,255,95,95,95,95,95,95,95,95,95,95,95,94,95,94,95,95,95,95,94,94,94,94,94,94,94,94,94,94,94,93,93,93,93,93,93,93,92,92,92,92,255,255,255,255,255,255,90,90,90,90,90,90,90,90,90,90,90,89,89,89,89,89,89,89,89,89,89,89,89,89,89,89,88,88,88,89,89,89,89,89,89,255,255,255,255,255,255,255,255,255,89,89,89,89,89,89,89,89,89,89,89,89,89,89,88,255,255,255,255,255,255,255,255,255,255,255,255,255,255,255,255,255,255,255,255,255,255,91,255,255,255,255,255,255,255,255,255,255,255,255,255,255,255,255,255,255,255,255,255,255,255,255,255,255,100,100,101,101,101,101,102,102,103,103,103,104,104,104,104,105,105,105,106,106,106,106,107,107,255,255,255,255,255,255,255,255,255,255,255,255,255,255,255,255,255,255,255,255,255,255,255,255,255,255,255,255,255,255,255,107,107,107,106,106,105,105,105,104,104,104,104,104,104,104,104,104,104,104,255,255,255,255,255,255,255,255
248,248,248,248,248,248,248,248,248,248,248,248,248,248,248,255,255,255,255,255,255,255,245,245,245,245,245,245,245,245,245,245,245,245,245,244,244,249,249,249,249,249,249,249,249,249,249,249,249,249,249,249,249,249,249,249,249,249,249,249,249,249,249,249,249,249,249,249,249,249,250,249,249,249,249,249,249,249,249,249,249,249,250,250,250,250,249,250,250,250,250,250,250,250,250,250,250,250,250,250,250,250,250,250,250,250,250,250,250,250,250,250,250,250,250,250,250,250,250,250,250,250,250,250,250,250,250,250,250,250,250,250,250,250,250,250,250,250,250,250,250,250,251,250,250,250,250,250,250,250,250,250,250,250,250,250,250,250,250,250,250,250,250,250,250,250,250,250,250,250,250,250,250,250,250,250,250,251,250,250,250,250,250,250,250,250,250,250,250,250,251,251,251,250,250,250,250,250,250,250,250,250,250,250,251,255,255,251,251,251,251,251,251,251,251,251,251,251,251,251,251,251,251,251,251,251,251,251,251,251,251,251,251,251,251,251,251,251,252,252,252,252,252,252,252,252,252,252,252,252,252,252,252,252,252,252,252,252,252,252,252,252,252,252,252,252,252,252,252,252,252,252,252,252,252,252,252,252,252,252,252,252,253,253,253,253,252,253,253,253,253,253,253,253,253,253,253,253,253,253,253,253,253,253,253,253,253,253,253,253,253,253,253,253,253,253,253,253,255,255,255,255,255,255,255,255,255,255,255,255,255,255,255,255,255,255,255,255,255,255,255,255,255,255,255,255,255,255,255,255,255,255,255,255,255,255,255,255,255,255,255,255,255,255,255,255,255,255,255,255,255,255,255,255,255,255,255,255,255,255,255,255,255,255,255,255,255,255,255,255,255,255,255,255,255,255,255,255,255,255,255,255,255,255,255,95,95,95,95,95,95,95,94,94,94,94,94,94,94,94,94,94,94,94,94,94,94,94,94,93,93,93,93,93,93,93,93,93,92,92,92,92,92,92,255,255,255,255,255,91,90,90,90,90,90,90,90,90,90,90,89,89,89,89,89,89,89,89,89,89,89,89,88,89,89,89,88,88,88,89,89,89,89,88,89,89,255,255,255,255,255,255,255,255,255,90,90,89,89,89,89,89,89,89,89,89,89,89,88,88,88,88,87,87,87,255,255,255,255,255,255,255,255,255,255,255,255,255,255,255,91,91,91,255,255,255,255,255,255,255,255,255,255,255,255,255,255,255,255,255,255,255,255,255,255,255,255,255,100,100,101,101,101,101,102,102,103,103,103,104,104,104,104,104,104,105,106,106,106,106,107,107,107,255,255,255,255,255,255,255,255,255,255,255,255,255,255,255,255,255,255,255,255,255,255,255,255,255,255,255,255,255,255,107,107,107,106,106,105,105,105,104,104,104,104,104,104,104,103,103,103,103,255,255,255,255,255,255,255,255
248,248,248,248,248,248,248,248,248,248,248,248,248,248,248,255,255,255,255,255,255,255,245,245,245,245,245,245,245,245,245,245,245,245,245,245,245,249,249,249,249,249,249,249,249,249,249,249,249,249,249,249,249,249,249,249,249,249,249,249,249,249,249,249,249,249,249,249,250,250,250,250,249,250,249,249,249,249,249,249,249,249,250,250,250,250,250,250,250,250,250,250,250,250,250,250,250,250,250,250,250,250,250,250,250,250,250,250,250,250,250,250,250,250,250,250,250,250,250,250,250,250,250,250,250,250,250,250,250,250,250,250,250,250,250,250,250,250,250,250,250,250,251,250,250,250,250,250,250,250,250,250,250,250,250,250,250,250,250,250,250,250,250,250,250,250,250,250,250,250,250,250,250,250,250,250,250,251,251,250,251,251,250,251,250,250,250,250,250,250,251,250,250,250,250,250,250,250,250,250,250,250,250,251,251,251,251,251,251,251,251,251,251,251,251,251,251,252,251,251,251,251,251,251,251,251,251,251,251,251,251,251,251,251,251,251,252,251,252,252,252,252,252,252,252,252,252,252,252,252,252,252,252,252,252,252,252,252,252,252,252,252,252,252,252,252,252,252,252,252,252,252,252,252,252,252,252,252,252,252,252,252,252,253,253,253,253,253,253,253,253,253,253,253,253,253,253,253,253,253,253,253,253,253,253,253,253,253,253,253,253,253,253,253,253,253,253,253,255,255,255,255,255,255,255,255,255,255,255,255,255,255,255,255,255,255,255,255,255,255,255,255,255,255,255,255,255,255,255,255,255,255,255,255,255,255,255,255,255,255,255,255,255,255,255,255,255,255,255,255,255,255,255,255,255,255,255,255,255,255,255,255,255,255,255,255,255,255,255,255,255,255,255,255,255,255,255,255,255,255,255,255,255,255,255,95,95,95,95,95,95,95,94,94,94,94,94,94,94,94,94,94,94,94,94,94,93,93,93,93,93,93,93,92,92,92,92,92,92,92,92,92,255,255,255,255,255,255,255,90,90,90,90,90,90,90,90,90,90,90,90,89,89,89,89,89,89,88,89,89,89,88,88,89,89,89,88,88,88,89,89,89,89,88,89,89,89,89,89,255,255,255,255,255,89,89,89,89,89,89,89,89,89,89,89,89,88,88,88,88,88,87,87,87,87,87,87,255,255,255,255,255,255,255,255,255,255,255,255,255,91,91,91,255,255,255,255,255,255,255,255,255,255,255,255,255,255,255,255,255,255,255,255,255,255,255,255,255,100,100,100,101,101,101,102,102,102,103,103,103,104,104,104,104,104,105,106,106,106,106,107,107,107,255,255,255,255,255,255,255,255,255,255,255,255,255,255,255,255,255,255,255,255,255,255,255,255,255,255,255,255,255,255,107,107,107,106,105,105,105,104,104,104,104,104,104,103,103,103,103,103,103,255,255,255,255,255,255,255,255
248,249,248,248,248,248,248,248,248,248,248,248,249,249,249,249,255,255,255,255,255,255,245,245,245,245,245,245,245,245,245,245,245,245,245,249,249,249,249,249,249,249,249,249,249,249,249,249,249,249,249,249,249,249,249,249,249,249,249,249,249,249,249,249,249,249,249,250,250,250,250,250,250,250,250,249,249,249,250,249,250,249,250,250,250,250,250,250,250,250,250,250,250,250,250,250,250,250,250,250,250,250,250,250,250,250,250,250,250,250,250,250,250,250,250,250,250,250,250,250,250,250,250,250,250,250,250,250,250,250,250,250,250,250,250,250,250,250,250,250,250,251,251,251,251,251,250,251,250,251,251,251,251,251,250,250,250,250,250,250,250,250,250,250,250,250,250,250,250,250,250,250,250,250,250,250,250,251,250,250,251,251,250,250,250,250,250,250,250,250,251,250,250,250,250,250,250,250,250,250,250,250,251,251,251,251,251,251,251,251,251,251,251,251,251,252,252,252,252,251,251,251,251,251,251,251,251,251,251,251,251,251,251,251,251,251,252,252,252,252,252,252,252,252,252,252,252,252,252,252,252,252,252,252,252,252,252,252,252,252,252,252,252,252,252,252,252,252,252,252,252,252,252,252,252,252,252,252,252,252,252,253,253,253,253,253,253,253,253,253,253,253,253,253,253,253,253,253,253,253,253,253,253,253,253,253,253,253,253,253,253,253,253,253,253,253,253,253,253,255,255,255,255,255,255,255,255,255,255,255,255,255,255,255,255,255,255,255,255,255,255,255,255,255,255,255,255,255,255,255,255,255,255,255,255,255,255,255,255,255,255,255,255,255,255,255,255,255,255,255,255,255,255,255,255,255,255,255,255,255,255,255,255,255,255,255,255,255,255,255,255,255,255,255,255,255,255,255,255,255,255,255,255,255,255,96,95,95,95,95,95,95,94,94,95,94,94,94,94,94,94,94,93,93,94,93,93,93,93,93,93,93,92,92,92,92,92,92,92,92,92,92,255,255,255,255,255,255,255,255,255,91,90,90,90,90,90,90,90,90,90,90,89,89,89,89,88,88,89,89,89,88,88,89,89,89,89,89,88,89,88,89,89,88,89,89,89,89,89,255,255,255,255,255,90,89,89,89,89,89,89,89,89,89,89,89,88,88,88,88,88,88,87,87,87,87,87,255,255,89,89,255,255,255,255,255,255,255,255,91,91,91,91,91,255,255,255,255,255,255,255,255,255,255,255,255,255,255,255,255,255,255,255,255,255,255,255,255,100,100,100,101,101,101,102,102,102,102,103,103,104,104,104,104,104,105,106,106,106,106,107,107,107,107,108,255,255,255,255,255,255,255,255,255,255,255,255,255,255,255,255,255,255,255,255,255,255,255,255,255,255,255,255,107,107,106,106,105,105,104,104,104,104,104,104,103,103,103,103,103,103,103,255,255,255,255,255,255,255,255
249,249,249,249,248,248,248,248,248,248,248,248,249,249,249,249,249,255,255,255,255,255,245,245,245,245,245,245,245,245,245,245,245,249,249,249,249,249,249,249,249,249,249,249,249,249,249,249,249,249,249,249,249,249,249,249,249,249,249,249,249,249,249,250,250,250,250,250,250,250,250,250,250,250,250,250,249,250,250,250,250,250,250,250,250,250,250,250,250,250,250,250,250,250,250,250,250,250,250,250,250,250,250,250,250,250,250,250,250,250,250,250,250,250,250,250,250,250,250,250,250,250,250,250,250,250,250,250,250,250,250,250,250,250,250,250,250,250,250,250,250,251,251,251,251,251,251,251,251,251,251,250,251,251,251,250,250,250,250,250,250,250,250,250,250,250,250,250,250,250,250,250,250,250,250,250,250,251,250,250,250,251,250,250,250,250,250,250,250,250,251,251,250,250,250,250,250,250,250,250,251,251,251,251,251,251,251,251,251,251,251,252,252,252,252,252,252,252,252,252,252,252,252,251,251,251,251,251,251,252,251,252,252,252,252,252,252,252,252,252,252,252,252,252,252,252,252,252,252,252,252,252,252,252,252,252,252,252,252,252,252,252,252,252,252,252,252,252,252,252,252,252,252,252,252,252,252,252,252,252,253,253,253,253,253,253,253,253,253,253,253,253,253,253,253,253,253,253,253,253,253,253,253,253,253,253,253,253,253,253,253,253,253,253,253,253,253,253,253,253,255,255,255,255,255,255,255,255,255,255,255,255,255,255,255,255,255,255,255,255,255,255,255,255,255,255,255,255,255,255,255,255,255,255,255,255,255,255,255,255,255,255,255,255,255,255,255,255,255,255,255,255,255,255,255,255,255,255,255,255,255,255,255,255,255,255,255,255,255,255,255,255,255,255,255,255,255,255,255,255,255,255,255,255,96,96,96,95,95,95,95,95,94,94,94,94,94,94,94,94,94,94,94,94,93,93,93,93,93,93,92,92,92,92,92,92,92,92,92,92,92,92,255,255,255,255,255,255,255,255,255,90,90,90,90,90,90,90,90,90,89,89,89,89,89,89,89,88,89,89,88,88,88,88,89,89,88,88,88,88,88,89,88,88,89,89,89,89,89,89,89,89,89,89,89,89,89,89,89,89,89,89,89,89,89,89,89,88,88,88,88,88,87,87,88,88,88,88,89,89,89,255,255,255,255,255,255,255,255,90,91,91,91,91,91,91,255,255,255,255,255,255,255,255,255,255,255,255,255,255,255,255,255,255,255,255,255,100,100,100,100,100,101,101,102,102,102,103,103,103,103,104,104,104,104,105,105,106,106,106,107,107,107,107,108,255,255,255,255,255,255,255,255,255,255,255,255,255,255,255,255,255,255,255,255,255,255,255,255,255,255,255,255,106,106,106,106,105,105,104,104,104,104,103,103,103,103,103,103,102,102,102,255,255,255,255,255,255,255,255
248,249,249,249,248,248,248,248,248,248,248,249,249,249,249,249,249,255,249,255,255,255,245,244,245,245,245,245,245,245,245,245,255,249,249,249,249,249,249,249,249,249,249,249,249,249,249,249,249,249,249,249,249,249,249,249,249,249,249,249,249,249,249,250,250,250,250,250,250,250,250,250,250,250,250,250,250,250,250,250,250,250,250,250,250,250,250,250,250,250,250,250,250,250,250,250,250,250,250,250,250,250,250,250,250,250,250,250,250,250,250,250,250,250,250,250,250,250,250,250,250,250,250,250,250,250,250,250,250,251,251,251,251,251,251,251,251,251,251,251,251,251,251,251,251,251,251,251,251,251,251,251,251,251,251,251,250,250,250,251,250,250,250,250,250,250,250,250,250,250,250,250,250,250,250,250,250,250,250,250,250,250,250,250,250,250,250,250,250,250,251,251,250,250,250,250,250,250,251,251,251,251,251,251,251,251,251,251,251,251,251,252,252,252,252,252,252,252,252,252,252,252,252,252,252,252,252,252,252,252,252,252,252,252,252,252,252,252,252,252,252,252,252,252,252,252,252,252,252,252,252,252,252,252,252,252,252,252,252,252,252,252,252,252,252,252,252,252,252,252,252,252,252,252,252,252,252,252,253,253,253,253,253,253,253,253,253,253,253,253,253,253,253,253,253,253,253,253,253,253,253,253,253,253,253,253,253,253,253,253,253,253,253,253,253,253,253,253,253,253,253,255,255,255,255,255,255,255,255,255,255,255,255,255,255,255,255,255,255,255,255,255,255,255,255,255,255,255,255,255,255,255,255,255,255,255,255,255,255,255,255,255,255,255,255,255,255,255,255,255,255,255,255,255,255,255,255,255,255,255,255,255,255,255,255,255,255,255,255,255,255,255,255,255,255,255,255,255,255,255,255,255,255,97,97,96,96,95,95,95,95,95,94,94,94,94,94,94,94,94,94,94,94,93,93,93,93,93,93,92,92,92,92,92,92,92,92,92,92,92,92,91,255,255,255,255,255,255,255,90,90,90,90,90,90,90,90,90,90,90,255,89,89,89,89,89,88,88,89,89,89,88,89,89,89,89,88,88,88,88,88,88,88,88,89,89,89,89,89,89,89,89,89,89,89,89,89,89,89,89,89,89,89,89,89,89,89,89,88,88,88,88,88,88,88,88,88,88,90,89,89,89,90,90,90,255,255,90,90,90,91,91,91,91,91,91,91,92,255,255,255,255,255,255,255,255,255,255,255,255,255,255,255,255,255,255,255,100,100,100,100,100,101,101,102,102,103,103,103,103,103,104,104,104,104,104,105,106,106,106,107,107,107,107,255,255,255,255,255,255,255,255,255,255,255,255,255,255,255,255,255,255,255,255,255,255,255,255,255,255,255,255,255,106,106,106,105,105,105,104,104,104,104,103,103,103,103,103,102,102,102,102,255,255,255,255,255,255,255,255
249,249,249,249,249,248,249,249,249,249,249,249,249,249,249,249,249,249,249,255,255,255,245,244,245,245,245,245,245,245,245,245,249,249,249,249,249,249,249,249,249,249,249,249,249,249,249,249,249,249,249,249,249,249,249,249,249,249,249,249,249,249,249,250,250,250,250,250,250,250,250,250,250,250,250,250,250,250,250,250,250,250,250,250,250,250,250,250,250,250,250,250,250,250,250,250,250,250,250,250,250,250,250,250,250,250,250,250,250,250,250,250,250,250,251,251,251,251,251,251,251,250,250,251,251,251,251,251,251,251,251,251,251,251,251,251,251,251,251,251,251,251,251,251,251,251,251,251,251,251,251,251,251,251,251,251,251,251,251,251,251,251,250,251,251,251,250,250,250,250,250,250,250,250,250,250,250,250,250,250,250,250,250,250,250,250,250,250,251,251,251,251,251,251,251,251,251,251,251,251,251,251,251,251,251,251,251,251,251,251,251,252,252,252,252,252,252,252,252,252,252,252,252,252,252,252,252,252,252,252,252,252,252,252,252,252,252,252,252,252,252,252,252,252,252,252,252,252,252,252,252,252,252,252,252,252,252,252,252,252,252,252,252,252,252,252,252,252,252,253,253,253,253,253,253,253,253,253,253,253,253,253,253,253,253,253,253,253,253,253,253,253,253,253,253,253,253,253,253,253,253,253,253,253,253,253,253,253,253,253,253,253,253,253,253,253,253,253,253,253,253,253,255,255,255,255,255,255,255,255,255,255,255,255,255,255,255,255,255,255,255,255,255,255,255,255,255,255,255,255,255,255,255,255,255,255,255,255,255,255,255,255,255,255,255,255,255,255,255,255,255,255,255,255,255,255,255,255,255,255,255,255,255,255,255,255,255,255,255,255,255,255,255,255,255,255,255,255,255,255,255,255,255,97,96,96,96,95,95,95,95,95,94,94,94,94,94,94,94,94,94,94,94,94,93,93,93,93,93,92,92,92,92,92,92,91,91,91,91,91,92,91,255,255,255,255,255,255,255,255,89,90,90,90,90,90,91,90,90,90,90,90,89,89,89,88,88,88,89,89,89,89,89,89,89,89,89,88,88,88,88,88,88,88,88,89,89,89,89,89,89,89,89,89,89,89,89,89,89,89,89,89,89,89,89,89,89,89,88,89,88,88,88,88,88,88,88,88,89,89,89,89,90,90,90,90,90,90,90,90,91,91,91,91,91,91,91,92,92,255,255,255,255,255,255,255,255,255,255,255,255,255,255,255,255,255,255,255,100,100,100,100,101,101,102,102,103,103,103,103,103,103,103,104,104,104,105,105,106,106,107,107,107,107,255,255,255,255,255,255,255,255,255,255,255,255,255,255,255,255,255,255,255,255,255,255,255,255,255,255,255,255,255,106,106,106,105,105,105,104,104,104,104,103,103,103,103,103,102,102,102,102,255,255,255,255,255,255,255,255
249,249,249,249,249,248,249,249,249,249,249,249,249,249,249,249,249,249,249,255,255,255,244,244,245,245,245,245,245,245,245,245,249,249,249,249,249,249,249,249,249,249,249,249,249,249,249,249,249,249,249,249,249,249,249,249,249,249,249,250,250,250,250,250,250,250,250,250,250,250,250,250,250,250,250,250,250,250,250,250,250,250,250,250,250,250,250,250,250,250,250,250,250,250,250,250,250,250,250,250,250,250,250,250,250,250,250,250,250,250,250,250,251,251,251,251,251,251,251,251,251,251,251,251,251,251,251,251,251,251,251,251,251,251,251,251,251,251,251,251,251,251,251,251,251,251,251,251,251,251,251,251,251,251,251,251,251,251,251,251,251,251,251,251,251,251,251,250,250,250,250,250,250,250,250,250,250,250,250,250,250,250,250,250,251,251,250,251,251,251,251,251,251,251,251,251,251,251,251,251,251,251,251,251,251,251,251,251,251,251,251,252,252,252,252,252,252,252,252,252,252,252,252,252,252,252,252,252,252,252,252,252,252,252,252,252,252,252,252,252,252,252,252,252,252,252,252,252,252,252,252,252,252,252,252,252,252,252,252,252,252,252,252,252,252,252,252,252,253,253,253,253,253,253,253,253,253,253,253,253,253,253,253,253,253,253,253,253,253,253,253,253,253,253,253,253,253,253,253,253,253,253,253,253,253,253,253,253,253,253,253,253,253,253,253,253,253,253,253,253,253,253,255,255,255,255,255,255,255,255,255,255,255,255,255,255,255,255,255,255,255,255,255,255,255,255,255,255,255,255,255,255,255,255,255,255,255,255,255,255,255,255,255,255,255,255,255,255,255,255,255,255,255,255,255,255,255,255,255,255,255,255,255,255,255,255,255,255,255,255,255,255,255,255,255,255,255,255,255,255,255,255,255,97,97,96,96,96,95,95,95,95,94,94,94,94,94,94,94,94,94,93,93,93,93,93,93,93,93,92,91,91,91,92,92,91,91,91,91,91,92,92,255,255,255,255,255,89,89,89,89,90,90,90,90,90,90,90,90,90,90,90,89,89,89,89,89,89,89,89,89,89,89,89,89,89,89,88,88,88,88,89,89,88,88,89,89,89,89,89,89,89,89,89,89,89,89,89,89,89,89,89,89,89,89,89,88,88,88,88,88,88,88,88,88,88,89,89,89,89,89,89,90,90,90,90,90,90,90,90,91,91,91,91,92,92,92,92,92,93,93,255,255,255,255,255,255,255,255,255,255,255,255,255,255,255,255,255,99,100,100,100,100,102,102,102,102,102,103,103,103,103,103,104,104,104,105,105,106,106,107,107,107,107,107,255,255,255,255,255,255,255,255,255,255,255,255,255,255,255,255,255,255,255,255,255,255,255,255,255,255,255,255,106,106,106,105,105,105,104,104,104,103,103,103,103,103,103,102,102,102,102,255,255,255,255,255,255,255,255
249,249,249,249,249,249,249,249,249,249,249,249,249,249,249,249,249,249,249,249,255,255,245,245,245,245,245,245,245,245,245,245,249,249,249,250,250,250,250,250,250,249,249,249,249,249,249,249,249,249,250,249,249,249,250,250,250,250,250,250,250,250,250,250,250,250,250,250,250,250,250,250,250,250,250,250,250,250,250,250,250,250,250,250,250,250,250,250,250,250,250,250,250,250,250,250,250,250,250,250,250,250,250,250,250,250,250,251,250,251,251,250,251,251,251,251,251,251,251,251,251,251,251,251,251,251,251,251,251,251,251,251,251,251,251,251,251,251,251,251,251,251,251,251,251,251,251,251,251,251,251,251,251,251,251,251,251,251,251,251,251,251,251,251,251,251,251,250,251,251,251,250,250,250,250,250,250,250,250,250,250,250,250,251,251,251,251,251,251,251,251,251,251,251,251,251,251,251,251,251,251,252,251,251,251,252,252,252,251,252,252,252,252,252,252,252,252,252,252,252,252,252,252,252,252,252,252,252,252,252,252,252,252,252,252,252,252,252,252,252,252,252,252,252,252,252,252,252,252,252,252,253,252,252,252,252,253,253,253,253,253,253,252,252,252,252,253,253,253,253,253,253,253,253,253,253,253,253,253,253,253,253,253,253,253,253,253,253,253,253,253,253,253,253,253,253,253,253,253,253,253,253,253,253,253,253,253,253,253,253,253,253,253,253,253,253,253,253,253,253,253,253,255,255,255,255,255,255,255,255,255,255,255,255,255,255,255,255,255,255,255,255,255,255,255,255,255,255,255,255,255,255,255,255,255,255,255,255,255,255,255,255,255,255,255,255,255,255,255,255,255,255,255,255,255,255,255,255,255,255,255,255,255,255,255,255,255,255,255,255,255,255,255,255,255,255,255,255,255,255,255,97,97,97,97,96,96,95,95,95,95,95,94,94,94,94,94,94,94,94,94,93,93,93,93,93,93,93,91,91,91,91,91,92,92,91,91,91,91,92,92,90,90,90,89,89,89,89,89,89,89,89,90,90,90,90,90,90,90,90,90,90,89,89,89,89,88,89,89,89,89,89,89,89,89,89,89,89,88,88,88,88,89,88,88,89,89,89,89,89,89,89,89,89,89,89,89,89,88,89,89,88,88,89,89,89,89,89,88,89,88,88,88,88,88,88,89,89,89,89,89,90,90,90,90,90,90,90,90,90,91,90,91,91,91,92,92,92,92,255,255,255,255,255,255,255,255,255,255,255,255,255,97,255,255,255,255,255,99,99,100,100,100,102,102,102,102,102,103,102,103,103,103,104,104,104,104,106,106,106,107,107,107,107,255,255,255,255,255,255,255,255,255,255,255,255,255,255,255,255,255,255,255,255,255,255,255,255,255,255,255,255,255,106,106,106,105,105,104,104,104,103,103,103,103,103,103,102,102,102,102,101,255,255,255,255,255,255,255,255
249,249,249,249,249,249,249,249,249,249,249,249,249,249,249,249,249,249,249,249,249,255,244,245,245,245,245,245,245,245,245,245,249,250,249,250,250,250,250,250,250,250,249,249,249,249,250,250,250,250,250,250,250,250,250,250,250,250,250,250,250,250,250,250,250,250,250,250,250,250,250,250,250,250,250,250,250,250,250,250,250,250,250,250,250,250,250,250,250,250,250,250,250,250,250,250,250,250,250,251,250,250,250,250,251,251,251,251,251,251,251,251,251,251,251,251,251,251,251,251,251,251,251,251,251,251,251,251,251,251,251,251,251,251,251,251,251,251,251,251,251,251,251,251,251,251,251,251,251,251,251,251,251,251,251,251,251,251,251,251,251,251,251,251,251,251,251,251,251,251,251,251,251,250,250,250,250,250,250,250,250,250,251,251,251,251,251,252,251,251,251,251,251,251,251,251,251,251,252,252,252,252,252,252,252,252,252,252,252,252,252,252,252,252,252,252,252,252,252,252,252,252,252,252,252,252,252,252,252,252,252,252,252,252,252,252,252,252,252,252,252,252,252,252,252,252,252,252,252,253,253,253,253,253,253,253,253,253,253,253,253,253,253,253,253,253,253,253,253,253,253,253,253,253,253,253,253,253,253,253,253,253,253,253,253,253,253,253,253,253,253,253,253,253,253,253,253,253,253,253,253,253,253,253,253,253,253,253,253,253,253,253,253,253,253,253,253,253,253,253,253,255,255,255,255,255,255,255,255,255,255,255,255,255,255,255,255,255,255,255,255,255,255,255,255,255,255,255,255,255,255,255,255,255,255,255,255,255,255,255,255,255,255,255,255,255,255,255,255,255,255,255,255,255,255,255,255,255,255,255,255,255,255,255,255,255,255,255,255,255,255,255,255,255,255,255,255,255,255,255,97,97,97,97,97,96,95,95,95,95,95,95,94,94,94,94,94,94,94,94,94,93,93,93,93,93,91,91,91,91,91,91,91,92,91,91,91,91,91,90,90,90,90,89,89,89,89,89,89,89,89,89,90,90,90,90,90,255,255,255,90,89,89,89,89,88,88,89,89,89,89,89,89,89,89,89,89,89,88,88,88,88,88,88,88,88,89,89,89,89,89,89,89,89,89,89,89,89,88,88,88,88,88,89,89,88,88,89,88,89,88,88,88,88,88,88,89,89,89,89,89,90,90,90,90,90,90,90,90,90,90,90,90,91,91,91,92,92,92,92,255,255,255,255,255,255,255,96,96,255,96,97,97,255,255,98,99,99,99,99,99,100,101,102,102,102,102,102,102,102,103,103,103,104,104,104,104,105,106,106,106,107,107,107,255,255,255,255,255,255,255,255,255,255,255,255,255,255,255,255,255,255,255,255,255,255,255,255,255,255,255,255,255,255,255,255,105,105,104,104,103,103,103,103,103,103,102,102,102,102,101,101,255,255,255,255,255,255,255,255
249,249,249,249,249,249,249,249,249,249,249,249,249,249,249,249,249,249,249,249,249,255,245,245,245,245,245,245,245,245,245,245,250,250,250,250,250,250,250,250,250,250,250,250,249,250,250,250,250,250,250,250,250,250,250,250,250,250,250,250,250,250,250,250,250,250,250,250,250,250,250,250,250,250,250,250,250,250,250,250,250,250,250,250,250,250,250,250,250,250,250,250,250,250,250,251,251,251,251,251,251,250,251,251,251,251,251,251,251,251,251,251,251,251,251,251,251,251,251,251,251,251,251,251,251,251,251,251,251,251,251,251,251,251,251,251,251,251,251,251,251,251,251,251,251,251,251,251,251,251,251,251,251,251,251,251,251,251,251,251,251,251,251,251,251,251,251,251,251,251,251,251,251,251,251,251,251,250,251,251,251,251,251,251,251,251,252,252,252,252,252,252,252,252,252,252,252,252,252,252,252,252,252,252,252,252,252,252,252,252,252,252,252,252,252,252,252,252,252,252,252,252,252,252,252,252,252,252,252,252,252,252,252,252,252,252,252,252,252,252,252,252,252,252,252,253,253,253,253,253,253,253,253,253,253,253,253,253,253,253,253,253,253,253,253,253,253,253,253,253,253,253,253,253,253,253,253,253,253,253,253,253,253,253,253,253,253,253,253,253,253,253,253,253,253,253,253,253,253,253,253,253,253,253,253,253,253,254,254,253,253,253,253,253,253,253,253,254,253,253,253,255,255,255,255,255,255,255,255,255,255,255,255,255,255,255,255,255,255,255,255,255,255,255,255,255,255,255,255,255,255,255,255,255,255,255,255,255,255,255,255,255,255,255,255,255,255,255,255,255,255,255,255,255,255,255,255,255,255,255,255,255,255,255,255,255,255,255,255,255,255,255,255,255,255,255,255,255,255,255,97,97,97,97,97,96,96,95,95,95,95,95,94,94,94,94,94,94,93,94,93,93,93,93,93,255,255,91,91,91,91,91,91,91,91,91,91,91,90,90,90,90,90,89,89,89,89,89,89,89,89,89,89,89,89,89,89,89,255,89,89,89,89,89,89,88,88,89,89,88,89,89,89,89,89,88,88,88,88,88,88,88,89,88,88,255,255,255,255,255,255,255,89,89,89,89,89,89,88,88,88,88,88,89,89,88,88,89,89,89,89,88,88,89,89,89,89,89,89,89,255,255,90,90,90,90,90,90,90,90,90,90,90,91,91,91,91,92,92,92,255,255,255,255,255,255,255,96,96,96,96,97,97,97,97,99,99,99,99,99,99,100,101,102,102,102,102,102,102,102,103,103,103,104,104,104,104,105,105,106,106,107,107,107,255,255,255,255,255,255,255,255,255,255,255,255,255,255,255,255,255,255,255,255,255,255,255,255,255,255,255,255,255,255,255,255,255,255,255,104,103,103,103,103,103,103,102,102,102,102,101,101,255,255,255,255,255,255,255,255
249,249,249,249,249,249,249,249,249,249,249,249,249,249,249,249,249,249,249,249,249,255,245,245,245,245,245,245,245,244,244,244,250,250,250,250,250,250,250,250,250,250,250,250,250,250,250,250,250,250,250,250,250,250,250,250,250,250,250,250,250,250,250,250,250,250,250,250,250,250,250,250,250,250,250,250,250,250,250,250,250,250,250,250,250,250,250,250,250,250,250,250,250,251,251,251,251,251,251,251,251,251,251,251,251,251,251,251,251,251,251,251,251,251,251,251,251,251,251,251,251,251,251,251,251,251,251,251,251,251,251,251,251,251,251,251,251,251,251,251,251,251,251,251,251,251,251,251,251,251,251,251,251,251,251,251,251,251,251,251,251,251,251,251,251,251,251,251,251,251,251,251,251,251,251,251,251,251,251,251,251,251,251,251,252,252,252,252,252,252,252,252,252,252,252,252,252,252,252,252,252,252,252,252,252,252,252,252,252,252,252,252,252,252,252,252,252,252,252,252,252,252,252,252,252,252,252,252,252,252,252,252,252,252,252,252,252,252,252,252,252,252,252,253,253,253,253,253,253,253,253,253,253,253,253,253,253,253,253,253,253,253,253,253,253,253,253,253,253,253,253,253,253,253,253,253,253,253,253,253,253,253,253,253,253,253,253,253,253,253,253,253,253,253,253,253,253,253,253,253,253,253,253,253,253,253,253,254,254,253,253,253,254,253,254,254,254,254,254,254,253,255,255,255,255,255,255,255,255,255,255,255,255,255,255,255,255,255,255,255,255,255,255,255,255,255,255,255,255,255,255,255,255,255,255,255,255,255,255,255,255,255,255,255,255,255,255,255,255,255,255,255,255,255,255,255,255,255,255,255,255,255,255,255,255,255,255,255,255,255,255,255,255,255,255,255,255,255,255,255,255,97,97,97,96,96,96,95,95,95,95,95,95,94,94,94,94,93,93,94,94,94,93,93,255,92,92,91,91,91,91,91,91,91,91,91,91,90,90,90,90,90,89,89,89,89,89,89,89,89,89,89,89,255,255,255,255,255,255,89,89,255,88,88,88,89,89,89,88,88,88,88,88,88,89,88,88,88,88,89,88,88,89,89,88,255,255,255,255,255,255,255,255,89,89,89,89,89,88,88,88,88,88,88,88,88,88,89,89,89,89,88,88,89,89,88,89,255,255,255,255,255,90,90,90,90,90,90,90,91,91,91,91,91,91,91,91,92,92,92,255,255,255,255,255,255,96,96,96,96,96,97,97,97,98,99,99,99,99,99,100,100,101,102,102,102,102,102,102,102,103,103,103,104,104,104,104,105,105,106,106,106,107,107,255,255,255,255,255,255,255,255,255,255,255,255,255,255,255,255,255,255,255,255,255,255,255,255,255,255,255,255,255,255,255,255,255,255,255,255,103,103,103,103,103,102,102,102,102,101,101,101,255,255,255,255,255,255,255,255
249,249,249,249,249,249,249,249,249,249,249,249,249,249,249,249,249,249,249,249,255,255,245,245,245,245,245,245,244,244,244,244,250,250,250,250,250,250,250,250,250,250,250,250,250,250,250,250,250,250,250,250,250,250,250,250,250,250,250,250,250,250,250,250,250,250,250,250,250,250,250,250,250,250,250,250,250,250,250,250,250,250,250,250,250,250,250,250,250,250,250,250,251,251,251,251,251,251,251,251,251,251,251,251,251,251,251,251,251,251,251,251,251,251,251,251,251,251,251,251,251,251,251,251,251,251,251,251,251,251,251,251,251,251,251,251,251,251,251,251,251,251,251,251,251,251,251,251,251,251,251,251,251,251,251,251,251,251,251,251,251,251,251,251,251,251,251,251,251,251,251,251,251,251,251,251,251,251,251,251,251,251,251,252,252,252,252,252,252,252,252,252,252,252,252,252,252,252,252,252,252,252,252,252,252,252,252,252,252,252,252,252,252,252,252,252,252,252,252,252,252,252,252,252,252,252,252,252,252,252,252,252,252,252,252,252,252,252,252,252,252,253,253,253,253,253,253,253,253,253,253,253,253,253,253,253,253,253,253,253,253,253,253,253,253,253,253,253,253,253,253,253,253,253,253,253,253,253,253,253,253,253,253,253,253,253,253,253,253,253,253,253,253,253,253,253,253,253,253,253,253,254,254,254,254,254,254,254,254,254,254,254,254,254,254,254,254,254,254,254,253,255,255,255,255,255,255,255,255,255,255,255,255,255,255,255,255,255,255,255,255,255,255,255,255,255,255,255,255,255,255,255,255,255,255,255,255,255,255,255,255,255,255,255,255,255,255,255,255,255,255,255,255,255,255,255,255,255,255,255,255,255,255,255,255,255,255,255,255,255,255,255,255,255,255,255,255,255,255,255,255,97,96,96,95,95,95,95,95,95,95,95,95,94,94,94,94,93,93,93,93,255,93,93,92,92,92,92,92,92,91,91,91,91,91,91,90,90,90,90,90,90,90,89,90,90,90,89,89,89,89,89,89,89,255,255,255,255,255,89,89,89,88,88,88,88,90,255,88,88,89,88,88,88,89,89,89,89,89,88,89,88,89,89,255,255,255,255,255,255,255,255,255,255,89,89,89,89,88,88,88,88,88,88,88,88,88,88,88,88,88,88,88,89,88,88,89,255,255,255,255,255,90,90,90,90,90,91,91,91,91,91,91,91,91,255,255,255,255,255,255,255,255,255,255,255,255,255,255,96,96,96,96,99,99,99,99,99,99,99,100,101,101,102,102,102,102,102,102,102,102,103,103,103,104,104,104,105,105,106,106,107,107,107,255,255,255,255,255,255,255,255,255,255,255,255,255,255,255,255,255,255,255,255,255,255,255,255,255,255,255,255,255,255,255,255,255,255,255,255,103,103,103,102,102,102,102,102,101,101,101,100,255,255,255,255,255,255,255,255
249,249,249,249,249,249,249,249,249,249,249,249,249,249,249,249,249,249,255,249,255,245,245,245,245,245,245,245,244,244,244,244,250,250,250,250,250,250,250,250,250,250,250,250,250,250,250,250,250,250,250,250,250,250,250,250,250,250,250,250,250,250,250,250,250,250,250,250,250,250,250,250,250,250,251,250,250,250,250,250,250,250,250,250,250,251,251,251,251,251,251,251,251,251,251,251,251,251,251,251,251,251,251,251,251,251,251,251,251,251,251,251,251,251,251,251,251,251,251,251,251,251,251,251,251,251,251,251,251,251,251,251,251,251,251,251,251,251,251,251,251,251,251,251,251,251,251,251,251,251,251,251,251,251,252,251,251,251,251,251,251,251,251,251,251,251,251,251,251,251,251,251,251,251,251,251,251,252,252,252,252,252,252,252,252,252,252,252,252,252,252,252,252,252,252,252,252,252,252,252,252,252,252,252,252,252,252,252,252,252,252,252,252,252,252,252,252,252,252,252,252,252,252,252,253,253,252,252,252,252,252,252,252,252,252,252,252,252,252,252,253,253,253,253,253,253,253,253,253,253,253,253,253,253,253,253,253,253,253,253,253,253,253,253,253,253,253,253,253,253,253,253,253,253,253,253,253,253,253,253,253,253,253,253,253,254,254,253,253,253,253,253,253,253,253,253,254,254,254,254,254,254,254,254,254,254,254,254,254,254,254,254,254,254,254,254,254,254,254,254,254,255,255,255,255,255,255,255,255,255,255,255,255,255,255,255,255,255,255,255,255,255,255,255,255,255,255,255,255,255,255,255,255,255,255,255,255,255,255,255,255,255,255,255,255,255,255,255,255,255,255,255,255,255,255,255,255,255,255,255,255,255,255,255,255,255,255,255,255,255,255,255,255,255,255,255,255,255,255,255,255,255,96,96,95,95,95,95,95,95,95,95,95,95,94,94,94,93,93,93,93,255,93,93,92,92,92,92,92,92,91,91,91,91,91,91,90,90,90,90,90,90,90,90,90,90,90,89,89,89,89,89,89,89,255,255,255,255,89,255,89,89,88,88,255,255,255,255,255,255,255,88,88,88,88,88,89,89,88,88,89,89,89,89,89,255,255,255,255,255,255,255,255,255,255,255,89,89,88,88,88,88,88,88,88,88,88,88,88,88,88,88,88,89,88,89,89,255,255,255,255,255,90,90,90,90,90,91,91,91,91,91,91,91,91,255,255,255,255,255,255,255,255,255,255,255,255,255,255,96,96,96,96,98,99,99,99,99,99,100,100,100,101,101,101,102,102,102,102,102,102,102,102,104,104,104,105,105,105,105,106,106,107,107,255,255,255,255,255,255,255,255,255,255,255,255,255,255,255,255,255,255,255,255,255,255,255,255,255,255,255,255,255,255,255,255,255,255,255,103,103,103,103,102,102,102,102,101,101,101,101,100,255,255,255,255,255,255,255,255
249,249,249,249,249,249,249,249,249,249,249,249,249,249,249,249,249,255,255,255,255,245,245,245,245,245,245,245,244,244,244,244,250,250,250,250,250,250,250,250,250,250,250,250,250,250,250,250,250,250,250,250,250,250,250,250,250,250,250,250,250,250,250,250,250,250,250,250,250,251,250,251,251,251,251,251,251,250,250,250,250,250,250,250,251,251,251,251,251,251,251,251,251,251,251,251,251,251,251,251,251,251,251,251,251,251,251,251,251,251,251,251,251,251,251,251,251,251,251,251,251,251,251,251,251,251,251,251,251,251,251,251,251,251,251,251,251,251,251,251,251,251,251,251,251,251,251,251,251,251,251,251,251,251,252,252,252,252,251,251,251,251,251,251,251,251,251,251,251,251,251,251,251,251,252,252,252,252,252,252,252,252,252,252,252,252,252,252,252,252,252,252,252,252,252,252,252,252,252,252,252,252,252,252,252,252,252,252,252,252,252,252,252,252,252,252,252,252,252,252,252,252,252,253,253,253,253,253,253,252,252,252,252,252,252,252,252,253,253,253,253,253,253,253,253,253,253,253,253,253,253,253,253,253,253,253,253,253,253,253,253,253,253,253,253,253,253,253,253,253,253,253,253,253,253,253,253,253,253,254,254,254,254,254,254,254,254,254,253,253,254,254,253,253,254,254,254,254,254,254,254,254,254,254,254,254,254,254,254,254,254,254,254,254,254,254,254,254,254,254,254,255,255,255,255,255,255,255,255,255,255,255,255,255,255,255,255,255,255,255,255,255,255,255,255,255,255,255,255,255,255,255,255,255,255,255,255,255,255,255,255,255,255,255,255,255,255,255,255,255,255,255,255,255,255,255,255,255,255,255,255,255,255,255,255,255,255,255,255,255,255,255,255,255,255,255,255,255,255,255,255,255,96,96,95,95,95,95,96,95,95,95,95,95,94,94,94,93,93,93,93,92,93,93,92,92,92,92,92,92,91,91,91,91,91,91,90,90,90,90,90,90,90,90,90,90,90,90,89,89,89,89,89,89,89,89,89,89,89,89,89,89,88,88,88,255,255,255,255,255,255,88,88,88,88,88,88,89,89,89,89,89,89,88,255,255,255,255,255,255,255,255,255,255,255,255,255,255,88,88,88,88,88,88,88,88,88,88,88,88,88,88,89,89,89,255,255,255,255,255,255,255,255,255,90,90,91,91,91,91,91,91,91,91,90,255,255,255,255,255,255,255,255,255,255,255,255,255,255,96,96,96,97,98,98,99,98,99,99,99,100,100,100,101,101,101,102,102,102,102,102,102,102,104,104,104,104,105,105,105,106,106,107,107,255,255,255,255,255,255,255,255,255,255,255,255,255,255,255,255,255,255,255,255,255,255,255,255,255,255,255,255,255,255,255,255,255,255,255,103,103,103,103,102,102,102,102,101,101,100,101,100,255,255,255,255,255,255,255,255
249,249,249,249,249,249,249,249,249,249,249,249,249,249,249,249,249,255,255,255,255,245,245,245,245,245,245,244,244,244,244,244,250,250,250,250,250,250,250,250,250,250,250,250,250,250,250,250,250,250,250,250,250,250,250,250,250,250,250,250,250,250,250,250,250,250,250,250,250,251,251,251,251,251,251,251,251,250,250,251,251,251,250,251,251,251,251,251,251,251,251,251,251,251,251,251,251,251,251,251,251,251,251,251,251,251,251,251,251,251,251,251,251,251,251,251,251,251,251,251,251,251,251,251,251,251,251,251,251,251,251,251,252,252,251,252,252,252,252,251,251,251,251,251,251,251,251,251,251,251,251,251,251,252,252,252,252,252,252,251,251,251,251,251,251,251,251,251,251,251,252,251,252,252,252,252,252,252,252,252,252,252,252,252,252,252,252,252,252,252,252,252,252,252,252,252,252,252,252,252,252,252,252,252,252,252,252,252,252,252,252,252,252,252,252,252,252,252,252,252,252,252,253,253,253,253,253,253,253,253,252,252,252,252,252,252,252,253,253,253,253,253,253,253,253,253,253,253,253,253,253,253,253,253,253,253,253,253,253,253,253,253,253,253,253,253,253,253,253,254,254,253,254,254,254,254,254,254,253,254,254,254,254,254,254,254,254,254,254,254,254,254,254,254,254,254,254,254,254,254,254,254,254,254,254,254,254,254,254,254,254,254,254,254,254,254,254,254,254,254,254,255,255,255,255,255,255,255,255,255,255,255,255,255,255,255,255,255,255,255,255,255,255,255,255,255,255,255,255,255,255,255,255,255,255,255,255,255,255,255,255,255,255,255,255,255,255,255,255,255,255,255,255,255,255,255,255,255,255,255,255,255,255,255,255,255,255,255,255,255,255,255,255,255,255,255,255,255,255,255,255,96,96,96,96,96,96,96,96,96,95,95,95,94,94,94,94,93,93,93,93,92,92,92,92,92,92,92,92,92,91,91,91,91,91,91,90,90,90,90,90,90,90,90,90,90,90,90,89,89,89,89,89,89,89,89,89,89,88,89,89,89,89,255,255,255,255,255,255,255,255,88,88,88,88,88,88,89,89,89,89,89,88,88,88,88,88,255,255,255,255,255,255,255,255,255,255,255,88,88,88,88,88,88,88,88,88,88,88,88,88,88,88,255,255,255,255,255,255,255,255,255,255,255,90,90,90,91,91,91,91,91,91,91,255,255,255,255,255,91,91,92,92,92,255,255,255,255,255,255,96,255,97,97,98,98,98,99,98,98,99,99,101,101,102,101,101,102,102,102,102,102,103,103,104,104,104,105,105,105,106,106,107,107,255,255,255,255,255,255,255,255,255,255,255,255,255,255,255,255,255,255,118,118,118,255,255,255,255,255,255,255,255,255,255,255,255,255,104,103,103,103,103,102,102,102,102,101,101,100,100,100,255,255,255,255,255,255,255,255
249,249,249,249,250,249,249,249,249,249,249,249,250,250,249,250,249,255,255,255,255,245,245,245,245,245,244,244,244,244,244,244,250,250,250,250,250,250,250,250,250,250,250,250,250,250,250,250,250,250,250,250,250,250,250,250,250,250,250,250,250,250,250,250,250,250,250,250,250,251,251,251,251,251,251,251,251,251,251,251,251,251,251,251,251,251,251,251,251,251,251,251,251,251,251,251,251,251,251,251,251,251,251,251,251,251,251,251,251,251,251,251,251,251,251,251,251,251,251,251,251,251,252,251,251,251,251,251,251,251,252,252,252,252,252,252,252,252,252,252,251,251,251,251,251,251,251,251,251,251,251,251,251,252,252,252,255,255,252,252,252,251,251,251,251,251,251,251,252,252,252,252,252,252,252,252,252,252,252,252,252,252,252,252,252,252,252,252,252,252,252,252,252,252,252,252,252,252,252,252,252,252,252,252,252,252,252,252,252,252,252,252,252,252,252,252,252,252,253,253,253,253,253,253,253,253,253,253,253,253,253,253,253,252,253,253,253,253,253,253,253,253,253,253,253,253,253,253,253,253,253,253,253,253,253,253,253,253,253,253,253,253,253,253,253,253,253,253,253,254,254,254,254,254,254,254,254,254,254,254,254,254,254,254,254,254,254,254,254,254,254,254,254,254,254,254,254,254,254,254,254,254,254,254,254,254,254,254,254,254,254,254,254,254,254,254,254,254,254,254,254,255,255,255,255,255,255,255,255,255,255,255,255,255,255,255,255,255,255,255,255,255,255,255,255,255,255,255,255,255,255,255,255,255,255,255,255,255,255,255,255,255,255,255,255,255,255,255,255,255,255,255,255,255,255,255,255,255,255,255,255,255,255,255,255,255,255,255,255,255,255,255,255,255,255,255,255,255,255,255,97,96,96,96,96,96,96,96,96,95,95,95,95,95,94,94,94,93,92,92,92,92,92,92,92,92,92,92,92,92,91,91,91,91,91,91,90,90,90,90,90,90,90,90,90,90,91,91,90,89,89,89,89,89,89,89,89,89,89,89,89,89,89,255,255,255,255,255,255,255,89,255,88,88,88,88,88,88,88,88,88,88,88,88,88,88,88,255,255,255,255,255,255,255,255,255,255,255,88,88,88,88,88,88,88,88,87,87,88,88,88,88,88,88,255,255,255,255,255,255,255,255,255,255,255,255,91,91,91,90,90,91,255,255,255,255,255,255,92,91,91,92,92,92,92,255,255,255,255,255,255,255,255,98,98,98,98,99,99,99,99,99,99,102,102,102,101,102,102,102,102,103,103,103,104,104,104,105,105,105,106,106,107,107,255,255,255,255,255,255,255,255,255,255,255,255,255,255,255,255,118,118,118,118,118,118,118,255,255,255,255,255,255,255,255,255,255,255,104,103,103,103,103,102,102,102,101,101,101,100,100,100,255,255,255,255,255,255,255,255
249,249,250,250,250,249,249,249,249,249,250,250,250,250,250,250,255,255,255,255,255,245,245,245,245,245,245,244,244,244,244,250,250,250,250,250,250,250,250,250,250,250,250,250,250,250,250,250,250,250,250,250,250,250,250,250,250,250,250,251,251,251,251,250,251,251,251,251,251,251,251,251,251,251,251,251,251,251,251,251,251,251,251,251,251,251,251,251,251,251,251,251,251,251,251,251,251,251,251,251,251,251,251,251,251,251,251,251,251,251,251,251,251,251,251,251,251,251,251,252,252,252,252,252,252,252,252,252,252,252,252,252,252,252,252,252,252,252,252,252,252,251,251,251,251,250,250,250,251,251,251,251,252,252,252,255,255,255,255,255,255,251,251,251,252,252,252,252,252,252,252,252,252,252,252,252,252,252,252,252,252,252,252,252,252,252,252,252,252,252,252,252,252,252,252,252,252,252,252,252,252,252,252,252,252,252,252,252,252,252,252,253,253,253,253,253,253,253,253,253,253,253,253,253,253,253,253,253,253,253,253,253,253,253,253,253,253,253,253,253,253,253,253,253,253,253,253,253,253,253,253,253,253,253,253,253,253,253,254,254,254,254,253,254,254,254,254,254,254,254,254,254,254,254,254,254,254,254,253,254,254,254,254,254,254,254,254,254,254,254,254,254,254,254,254,254,254,254,254,254,254,254,254,254,254,254,254,254,254,254,254,254,254,254,254,254,254,254,254,254,254,255,255,255,255,255,255,255,255,255,255,255,255,255,255,255,255,255,255,255,255,255,255,255,255,255,255,255,255,255,255,255,255,255,255,255,255,255,255,255,255,255,255,255,255,255,255,255,255,255,255,255,255,255,255,255,255,255,255,255,255,255,255,255,255,255,255,255,255,255,255,255,255,255,255,255,255,255,255,255,255,96,96,96,96,96,96,96,95,95,95,95,95,95,94,94,94,93,93,93,92,92,92,92,92,92,92,92,92,92,91,91,91,91,91,91,90,90,90,90,90,90,90,90,90,91,91,90,90,89,89,89,89,89,89,89,89,89,89,89,89,89,89,255,255,255,255,255,89,89,89,89,88,88,88,88,88,88,89,89,88,88,88,88,88,88,88,255,255,255,255,255,255,255,255,255,255,255,255,88,88,88,88,88,88,88,87,88,88,88,88,88,88,88,88,88,255,255,255,255,255,255,255,255,255,255,255,90,90,90,90,255,255,255,255,255,255,255,255,91,91,91,92,92,92,92,255,255,255,255,255,255,255,255,255,98,98,98,98,99,99,99,255,101,101,101,101,102,102,102,102,103,103,103,103,103,103,104,105,105,106,106,106,107,255,255,255,255,255,255,255,255,255,255,255,255,255,255,255,255,118,118,118,118,118,118,118,255,255,255,255,255,255,255,255,255,255,255,104,103,103,103,103,102,102,101,101,101,100,100,100,100,255,255,255,255,255,255,255,255
249,250,250,250,250,250,250,249,249,249,250,250,250,250,250,250,255,255,255,255,255,245,245,245,245,245,244,244,244,244,242,242,250,250,250,250,250,250,250,250,250,250,250,250,250,250,250,250,250,250,250,250,250,250,250,251,250,251,251,251,251,251,251,251,251,251,251,251,251,251,251,251,251,251,251,251,251,251,251,251,251,251,251,251,251,251,251,251,251,251,251,251,251,251,252,252,252,252,252,252,252,252,251,251,252,252,251,252,252,252,251,251,252,251,251,252,252,252,252,252,252,252,252,252,252,252,252,252,252,252,252,252,252,252,252,252,252,252,252,252,252,251,251,251,251,250,250,250,251,251,251,251,255,252,255,255,255,255,255,252,252,252,252,252,252,252,252,252,252,252,252,252,252,252,252,252,252,252,252,252,252,252,252,252,252,252,252,252,252,252,252,252,252,252,252,252,252,252,252,252,252,252,252,252,252,252,252,252,252,252,253,253,253,253,253,253,253,253,253,253,253,253,253,253,253,253,253,253,253,253,253,253,253,253,253,253,253,253,253,253,253,253,253,253,253,253,253,253,253,253,253,253,253,253,253,253,253,254,254,254,254,254,254,254,254,254,254,254,254,254,254,254,254,254,254,254,254,254,254,254,254,254,254,254,254,254,254,254,254,254,254,254,254,254,254,254,254,254,254,254,254,254,254,254,254,254,254,254,254,254,254,254,254,254,254,254,254,254,254,254,254,255,255,255,255,255,255,255,255,255,255,255,255,255,255,255,255,255,255,255,255,255,255,255,255,255,255,255,255,255,255,255,255,255,255,255,255,255,255,255,255,255,255,255,255,255,255,255,255,255,255,255,255,255,255,255,255,255,255,255,255,255,255,255,255,255,255,255,255,255,255,255,255,255,255,255,255,255,255,255,255,255,96,96,96,96,96,96,95,95,95,95,95,94,94,94,93,93,93,93,93,92,92,92,92,92,92,92,92,92,92,91,91,91,91,91,90,90,90,90,90,90,90,90,91,91,91,255,91,91,89,255,89,89,89,89,89,89,89,89,89,89,89,255,255,255,90,89,89,89,89,89,89,88,88,88,88,88,89,89,88,88,88,88,88,88,88,88,87,88,255,255,255,255,255,255,255,255,88,88,88,88,88,88,88,88,87,88,88,88,88,88,88,89,88,88,255,255,255,255,255,255,255,255,255,255,90,90,90,90,90,90,255,255,255,255,255,255,92,91,91,91,92,92,92,92,92,255,255,255,255,255,255,255,255,98,98,98,99,99,99,99,100,101,101,101,101,102,102,102,102,103,103,103,103,104,104,104,105,105,105,106,106,255,255,255,255,255,255,255,255,255,255,255,255,255,255,118,118,118,118,118,118,118,118,118,118,117,255,255,255,255,255,255,255,255,255,255,104,103,103,103,103,102,101,101,101,101,100,100,100,100,255,255,255,255,255,255,255,255
250,250,250,250,250,250,250,249,250,250,250,250,250,250,250,250,255,255,255,255,255,245,245,245,245,245,244,244,244,244,243,242,250,250,250,250,250,250,250,250,250,250,250,250,250,250,250,250,250,250,250,250,251,251,251,251,251,251,251,251,251,251,251,251,251,251,251,251,251,251,251,251,251,251,251,251,251,251,251,251,251,251,251,251,251,251,251,251,251,251,251,251,252,252,252,252,252,252,252,252,252,252,252,252,252,252,252,252,252,252,252,252,252,252,252,252,252,252,252,252,252,252,252,252,252,252,252,252,252,252,252,252,252,252,252,252,252,252,252,252,252,251,251,251,251,251,250,250,251,251,251,251,255,255,255,255,255,255,255,255,252,252,252,252,252,252,252,252,252,252,252,252,252,252,252,252,252,252,252,252,252,252,252,252,252,252,252,252,252,252,252,252,253,252,252,252,253,252,252,252,252,252,252,252,252,252,252,252,252,253,253,253,253,253,253,253,253,253,253,253,253,253,253,253,253,253,253,253,253,253,253,253,253,253,253,253,253,253,253,253,253,253,253,253,253,253,254,254,254,254,253,253,253,253,253,253,254,254,254,254,254,254,254,254,254,254,254,254,254,254,254,254,254,254,254,254,254,254,254,254,254,254,254,254,254,254,254,254,254,254,254,254,254,254,254,254,254,254,254,254,254,254,254,254,254,254,254,254,254,254,254,254,254,254,254,254,254,254,254,254,254,255,255,255,255,255,255,255,255,255,255,255,255,255,255,255,255,255,255,255,255,255,255,255,255,255,255,255,255,255,255,255,255,255,255,255,255,255,255,255,255,255,255,255,255,255,255,255,255,255,255,255,255,255,255,255,255,255,255,255,255,255,255,255,255,255,255,255,255,255,255,255,255,255,255,255,255,255,255,255,255,255,97,96,96,96,96,96,95,95,95,95,95,94,94,94,94,93,93,93,93,93,93,92,92,92,92,92,92,92,92,91,91,91,91,91,91,90,90,90,90,90,90,91,91,91,91,91,91,91,255,89,89,89,89,89,89,89,89,89,89,255,255,255,255,90,90,89,89,89,89,89,89,89,89,89,88,88,88,88,88,88,88,88,88,88,88,88,88,88,88,255,255,255,255,255,255,255,88,88,88,88,88,88,88,88,87,88,88,88,88,88,88,88,88,88,255,255,255,255,255,255,255,255,255,90,90,90,90,90,90,255,255,255,255,255,255,255,255,91,91,91,92,92,92,92,92,255,255,255,255,255,255,255,255,255,98,98,99,100,100,100,100,100,101,101,101,102,102,102,102,103,103,103,103,104,104,104,105,105,105,106,255,255,255,255,255,255,255,255,255,255,255,255,255,255,117,117,117,117,117,117,117,117,117,117,117,117,255,255,255,255,255,255,255,255,255,103,103,103,103,103,102,102,101,101,101,100,100,100,100,100,255,255,255,255,255,255,255,255
250,250,250,250,250,250,250,250,250,250,250,250,250,250,250,250,255,255,255,255,255,245,245,245,245,245,244,244,244,243,243,242,250,250,250,250,250,250,250,251,250,250,250,250,250,250,250,250,250,250,250,250,251,251,251,251,251,251,251,251,251,251,251,251,251,251,251,251,251,251,251,251,251,251,251,251,251,251,251,251,251,251,251,251,251,251,251,251,251,251,251,251,252,252,252,252,252,252,252,252,252,252,252,252,252,252,252,252,252,252,252,252,252,252,252,252,252,252,252,252,252,252,252,252,252,252,252,252,252,252,252,252,252,252,252,252,252,252,253,252,252,251,251,251,251,251,251,251,251,251,251,252,252,255,255,255,255,255,255,255,252,252,252,252,252,252,252,252,252,252,252,252,252,252,252,252,252,252,252,252,252,252,252,252,252,252,252,252,252,252,253,253,253,252,253,253,253,253,253,253,252,252,252,252,252,252,252,252,253,253,253,253,253,253,253,253,253,253,253,253,253,253,253,253,253,253,253,253,253,253,253,253,253,253,253,253,253,253,253,253,253,253,253,253,253,253,254,254,254,254,253,253,254,254,254,254,254,254,254,254,254,254,254,254,254,254,254,254,254,254,254,254,254,254,254,254,254,254,254,254,254,254,254,254,254,254,254,254,254,254,254,254,254,254,254,254,254,254,254,254,254,254,254,254,254,254,254,254,254,254,254,254,254,254,254,254,254,254,254,254,254,255,255,255,255,255,255,255,255,255,255,255,255,255,255,255,255,255,255,255,255,255,255,255,255,255,255,255,255,255,255,255,255,255,255,255,255,255,255,255,255,255,255,255,255,255,255,255,255,255,255,255,255,255,255,255,255,255,255,255,255,255,255,255,255,255,255,255,255,255,255,255,255,255,255,255,255,255,255,255,255,255,97,96,96,96,96,96,95,95,95,95,95,94,94,94,94,93,93,93,93,93,93,92,92,92,92,92,92,92,92,91,91,91,91,91,91,90,91,90,91,90,91,91,91,91,91,91,91,91,90,90,90,89,89,89,89,89,255,255,255,255,255,255,90,90,90,90,89,89,89,89,89,89,89,89,88,88,89,88,88,88,88,88,88,88,88,88,88,88,255,255,255,255,255,255,255,255,88,88,88,88,88,88,88,87,88,88,88,255,88,88,88,88,88,88,255,255,255,255,255,255,255,255,90,90,90,90,90,90,90,89,255,255,255,255,255,255,92,92,92,92,92,92,92,92,92,255,255,255,255,255,255,255,255,255,255,99,99,99,100,100,100,100,101,101,101,101,102,102,102,103,103,103,103,103,103,104,105,105,105,106,106,106,255,255,255,255,255,255,255,255,255,255,255,255,117,117,117,117,117,117,117,117,117,117,117,117,117,255,255,255,255,255,255,255,255,103,103,103,103,103,102,102,101,101,101,100,100,100,100,99,255,255,255,255,255,255,255,255
250,250,250,250,250,250,250,250,250,250,250,250,250,250,250,250,250,255,255,255,255,255,245,245,245,244,244,244,244,243,243,250,250,250,250,250,250,250,251,251,251,251,250,251,250,250,250,250,250,250,250,250,251,251,251,251,251,251,251,251,251,251,251,251,251,251,251,251,251,251,251,251,251,251,251,251,251,251,251,251,251,251,251,251,251,251,251,251,251,251,251,252,252,252,252,252,252,252,252,252,252,252,252,252,252,252,252,252,252,252,252,252,252,252,252,252,252,252,252,252,252,252,252,252,252,252,252,252,252,252,252,252,252,252,252,253,252,253,253,255,255,255,251,251,251,251,251,251,251,251,252,252,252,252,255,255,255,255,255,252,252,252,252,252,252,252,252,252,253,252,252,252,252,252,252,252,252,252,252,252,252,252,252,252,252,252,252,252,252,253,253,253,253,253,253,253,253,253,253,253,253,253,253,252,252,252,252,253,253,253,253,253,253,253,253,253,253,253,253,253,253,253,253,253,253,253,253,253,253,253,253,253,253,253,253,253,253,253,253,253,253,253,253,253,253,253,254,254,254,254,254,254,254,254,254,254,254,254,254,254,254,254,254,254,254,254,254,254,254,254,254,254,254,254,254,254,254,254,254,254,254,254,254,254,254,254,254,254,254,254,254,254,254,254,254,254,254,255,255,254,254,254,255,255,255,254,254,254,255,254,254,254,254,255,255,254,254,254,254,254,254,255,255,255,255,255,255,255,255,255,255,255,255,255,255,255,255,255,255,255,255,255,255,255,255,255,255,255,255,255,255,255,255,255,255,255,255,255,255,255,255,255,255,255,255,255,255,255,255,255,255,255,255,255,255,255,255,255,255,255,255,255,255,255,255,255,255,255,255,255,255,255,255,255,255,255,255,255,255,255,255,98,97,96,97,96,96,96,95,95,95,95,95,95,94,94,94,93,93,93,93,93,93,93,92,92,92,92,92,92,92,92,92,92,91,91,91,91,91,91,91,91,91,91,91,91,91,91,91,90,90,89,89,89,89,89,89,89,255,255,255,255,255,90,90,90,90,90,89,90,90,90,89,89,89,89,89,89,89,89,88,255,255,255,88,88,88,88,88,88,255,255,255,255,255,255,255,88,88,88,88,88,88,88,88,88,88,88,88,255,88,88,88,88,88,88,88,255,255,255,255,255,255,255,255,90,90,90,90,90,90,89,89,255,255,255,255,255,92,92,92,92,92,92,92,92,92,255,255,255,255,255,255,255,255,99,99,99,99,99,99,99,100,100,101,101,101,102,102,102,102,102,102,103,103,103,104,104,105,105,105,105,106,106,255,255,255,255,255,255,255,255,255,255,255,255,117,117,117,117,117,117,117,117,117,117,117,117,117,117,255,255,255,255,255,255,255,103,103,103,103,102,102,102,101,101,100,100,100,100,99,99,255,255,255,255,255,255,255,255
250,250,250,250,250,250,250,250,250,250,250,250,250,250,250,250,255,255,255,255,255,245,245,245,245,244,244,244,244,243,243,243,251,250,250,250,250,250,251,251,251,251,250,250,250,250,250,250,250,250,250,250,251,251,251,251,251,251,251,251,251,251,251,251,251,251,251,251,251,251,251,251,251,251,251,251,251,251,251,251,251,251,251,251,251,251,251,251,251,251,251,252,252,252,252,252,252,252,252,252,252,252,252,252,252,252,252,252,252,252,252,252,252,252,252,252,252,252,252,252,252,252,252,252,252,252,252,252,252,252,252,252,252,252,252,253,253,253,253,255,255,255,251,251,251,251,251,251,251,251,252,252,252,252,252,252,252,252,252,252,252,252,252,252,252,252,252,252,252,252,252,252,252,252,252,252,252,252,252,252,252,252,252,252,252,252,252,252,252,253,253,253,253,253,253,253,253,253,253,253,253,253,253,253,253,253,253,253,253,253,253,253,253,253,253,253,253,253,253,253,253,253,253,253,253,253,253,253,253,253,253,253,253,253,253,253,253,253,253,253,253,253,253,254,254,254,254,254,254,254,254,254,254,254,254,254,254,254,254,254,254,254,254,254,254,254,254,254,254,254,254,254,254,254,254,254,254,254,254,254,254,254,254,254,254,254,254,254,254,254,254,254,254,254,254,254,254,255,255,255,255,255,255,255,255,255,255,255,255,255,255,254,255,255,255,255,255,255,254,254,254,255,255,255,255,255,255,255,255,255,255,255,255,255,255,255,255,255,255,255,255,255,255,255,255,255,255,255,255,255,255,255,255,255,255,255,255,255,255,255,255,255,255,255,255,255,255,255,255,255,255,255,255,255,255,255,255,255,255,255,255,255,255,255,255,255,255,255,255,255,255,255,255,255,255,255,255,255,255,255,255,98,98,97,96,96,96,96,95,95,95,95,95,94,94,94,94,94,93,93,93,93,93,93,92,92,92,92,92,92,92,92,92,92,92,93,93,93,93,93,92,92,93,92,92,93,92,91,91,91,93,255,89,89,89,89,89,89,255,255,255,255,255,90,90,90,90,90,90,90,89,89,90,89,89,89,89,89,89,89,255,255,255,255,255,255,88,88,88,88,88,88,255,255,255,89,88,88,88,88,88,88,87,87,87,87,87,88,88,88,88,88,88,88,88,88,88,88,255,255,255,255,255,255,255,90,90,90,90,90,90,89,255,255,255,255,255,255,92,92,92,92,92,92,92,92,255,255,255,255,255,255,255,255,255,99,99,99,99,100,100,100,100,100,101,101,101,102,102,102,102,102,102,103,103,103,103,104,104,105,105,105,105,106,255,255,255,255,255,255,255,255,255,255,255,255,117,116,116,116,116,117,116,117,116,116,116,116,116,255,255,255,255,255,255,255,255,103,103,103,103,103,102,102,101,100,100,100,100,100,99,99,255,255,255,255,255,255,255,255
250,250,250,250,250,250,250,250,250,250,250,250,250,250,250,250,255,255,255,255,255,245,245,245,245,244,244,244,243,243,243,243,250,250,250,251,251,251,251,251,251,251,251,251,251,251,251,251,251,250,251,251,251,251,251,251,251,251,251,251,251,251,251,251,251,251,251,251,251,251,251,251,251,251,251,251,251,251,251,251,251,251,251,251,251,251,251,251,251,252,251,252,252,252,252,252,252,252,252,252,252,252,252,252,252,252,252,252,252,252,252,252,252,252,252,252,252,252,252,252,252,252,252,252,252,252,252,252,252,252,252,252,252,252,252,252,252,255,255,255,255,255,255,255,255,252,252,252,252,252,252,252,252,252,252,252,252,252,252,252,252,252,252,252,252,252,252,252,252,252,252,252,252,252,252,252,252,252,252,252,252,252,252,252,252,252,253,253,252,253,253,253,253,253,253,253,253,253,253,253,253,253,253,253,253,253,253,253,253,253,253,253,253,253,253,253,253,253,253,253,253,253,253,253,253,253,253,253,253,253,253,253,253,253,253,253,253,253,253,253,253,254,254,254,254,254,254,254,254,254,254,254,254,254,254,254,254,254,254,254,254,254,254,254,254,254,254,254,254,254,254,254,254,254,254,254,254,254,254,254,254,254,254,254,254,254,254,254,254,254,254,254,255,255,254,254,255,255,255,255,255,255,255,255,255,255,255,255,255,255,255,255,255,255,255,255,255,255,254,254,254,255,255,255,255,255,255,255,255,255,255,255,255,255,255,255,255,255,255,255,255,255,255,255,255,255,255,255,255,255,255,255,255,255,255,255,255,255,255,255,255,255,255,255,255,255,255,255,255,255,255,255,255,255,255,255,255,255,255,255,255,255,255,255,255,255,255,255,255,255,255,255,255,255,255,255,255,255,255,255,255,98,98,98,96,96,95,95,95,95,95,95,95,95,94,94,94,94,93,93,93,93,93,93,92,92,92,92,92,92,92,92,92,92,92,93,93,93,93,93,93,93,93,93,93,93,93,93,93,93,93,255,255,93,93,255,92,255,255,255,255,255,91,90,90,90,90,90,90,90,90,90,90,89,89,89,89,89,89,89,255,255,255,255,255,255,255,88,88,88,88,88,88,88,88,88,88,88,88,88,88,88,87,87,88,88,88,88,88,88,88,88,88,88,88,88,88,88,88,255,255,255,255,255,255,90,90,90,90,90,90,90,255,255,255,255,255,255,92,92,92,92,92,92,92,255,255,255,255,255,255,255,255,255,99,99,99,99,99,99,100,100,101,101,101,101,101,101,102,102,102,102,102,103,103,103,103,104,105,104,105,105,105,106,255,255,255,255,255,255,255,255,255,255,255,255,116,116,116,116,116,116,116,116,116,116,116,116,116,116,255,255,255,255,255,255,255,103,103,103,103,102,102,101,101,100,100,100,100,99,99,99,255,255,255,255,255,255,255,255
250,250,250,250,250,250,250,250,250,250,250,250,250,250,250,255,255,255,255,255,245,245,245,245,245,245,245,244,244,243,242,251,251,251,251,251,251,251,251,251,251,251,251,251,251,251,251,251,251,250,251,251,251,251,251,251,251,251,251,251,251,251,251,251,251,251,251,251,251,251,251,251,251,251,251,251,251,251,251,251,252,251,252,252,252,252,252,252,252,252,252,252,252,252,252,252,252,252,252,252,252,252,252,252,252,252,252,252,252,252,252,252,252,252,252,252,252,252,252,252,252,252,252,255,255,252,252,252,252,252,252,252,255,255,252,255,255,255,255,255,255,255,255,255,255,252,252,252,252,252,252,252,252,252,252,252,252,252,252,252,252,252,252,252,252,252,252,252,252,252,252,252,252,252,252,252,252,252,252,252,252,252,252,252,252,253,253,253,253,253,253,253,253,253,253,253,253,253,253,253,253,253,253,253,253,253,253,253,253,253,253,253,253,253,253,253,253,253,253,253,253,253,253,253,253,253,253,253,253,253,253,253,253,253,253,253,253,253,254,254,254,254,254,254,254,254,254,254,254,254,254,254,254,254,254,254,254,254,254,254,254,254,254,254,254,254,254,254,254,254,254,254,254,254,254,254,254,254,254,254,254,254,254,254,254,254,254,254,254,254,254,254,255,255,255,254,255,255,255,255,255,255,255,255,255,255,255,255,255,255,255,255,255,255,255,255,255,255,255,255,255,255,255,255,255,255,255,255,255,255,255,255,255,255,255,255,255,255,255,255,255,255,255,255,255,255,255,255,255,255,255,255,255,255,255,255,255,255,255,255,255,255,255,255,255,255,255,255,255,255,255,255,255,255,255,255,255,255,255,255,255,255,255,255,255,255,255,255,255,255,255,255,255,255,255,255,255,255,255,255,98,98,98,98,98,98,95,95,95,95,95,95,95,94,94,94,94,94,94,94,93,93,93,93,92,92,92,92,92,92,92,92,92,92,92,93,93,93,93,93,93,93,93,93,93,93,93,93,93,93,93,93,93,93,255,255,255,255,255,255,255,255,255,91,90,90,90,90,90,90,90,90,90,89,89,89,89,89,89,255,255,255,255,255,255,255,88,88,88,88,88,88,88,88,88,88,88,88,88,88,88,88,87,87,88,88,88,88,88,88,89,89,89,89,89,89,89,89,89,89,89,89,255,255,255,255,255,255,90,90,90,90,90,90,90,90,255,255,92,92,92,92,92,92,92,91,255,255,255,255,255,255,255,255,255,99,99,99,99,100,100,100,101,101,101,101,101,101,102,102,102,102,102,103,103,103,103,103,104,104,105,105,105,106,255,255,255,255,255,255,255,255,255,255,255,255,116,116,116,116,116,116,116,116,116,116,116,116,116,255,255,255,255,255,255,255,255,103,103,103,103,102,102,101,101,100,100,100,100,99,99,99,255,255,255,255,255,255,255,255
250,250,250,250,250,250,250,250,250,250,250,250,250,250,250,255,255,255,244,245,244,244,244,244,244,244,244,244,244,243,251,251,251,251,251,251,251,251,251,251,251,251,251,251,251,251,251,251,251,251,251,251,251,251,251,251,251,251,251,251,251,251,251,251,251,251,251,251,251,251,252,251,251,251,251,251,251,251,251,251,252,252,252,252,252,252,252,252,252,252,252,252,252,252,252,252,252,252,252,252,252,252,252,252,252,252,252,252,252,252,252,252,252,252,252,252,252,252,252,252,252,255,255,255,255,255,255,255,252,252,252,255,255,255,255,255,255,255,255,255,255,255,255,255,255,252,252,252,252,252,252,252,252,252,252,252,252,252,253,252,252,252,253,253,253,253,252,253,253,253,252,252,252,252,252,252,252,252,252,252,252,252,252,253,253,253,253,253,253,253,253,253,253,253,253,253,253,253,253,253,253,253,253,253,253,253,253,253,253,253,253,253,253,253,253,253,253,253,253,253,253,253,253,253,253,253,254,254,254,253,253,253,253,253,253,254,254,254,254,254,254,254,254,254,254,254,254,254,254,254,254,254,254,254,254,254,254,254,254,254,254,254,254,254,254,254,254,254,254,254,254,254,254,254,254,254,254,254,254,254,254,254,254,254,254,254,255,255,255,255,255,255,255,255,255,255,255,255,255,255,255,255,255,255,255,255,255,255,255,255,255,255,255,255,255,255,255,255,255,255,255,255,255,255,255,255,255,255,255,255,255,255,255,255,255,255,255,255,255,255,255,255,255,255,255,255,255,255,255,255,255,255,255,255,255,255,255,255,255,255,255,255,255,255,255,255,255,255,255,255,255,255,255,255,255,255,255,255,255,255,255,255,255,255,255,255,255,255,255,255,255,255,255,255,255,255,255,255,255,255,255,98,98,98,98,255,255,255,95,95,95,95,95,95,94,94,94,94,94,94,94,94,94,94,93,92,92,92,92,92,92,92,93,93,93,93,93,93,93,93,93,93,93,93,93,93,93,93,93,93,93,93,93,93,93,92,92,92,92,92,92,91,91,91,90,90,90,90,90,90,90,90,255,255,90,89,89,89,89,255,255,255,255,255,255,255,88,88,88,88,88,88,88,88,88,88,88,88,88,88,88,88,87,87,88,88,88,88,88,89,89,89,89,89,89,89,89,89,89,88,89,89,255,255,255,255,255,90,255,90,90,90,90,90,90,90,90,92,92,92,92,92,92,92,92,255,255,255,255,255,255,255,255,255,255,255,100,100,100,100,100,100,100,101,101,101,101,101,102,102,102,102,102,103,103,103,103,104,104,104,105,105,105,106,255,255,255,255,109,109,255,255,255,255,255,255,115,115,115,115,115,115,116,116,116,116,116,116,116,255,255,255,255,255,255,255,255,103,103,103,103,102,101,101,101,100,100,100,100,99,99,99,255,255,255,255,255,255,255,255
251,251,251,251,250,250,250,250,250,250,250,250,250,250,250,255,255,255,244,245,245,245,245,245,245,244,245,244,245,245,251,251,251,251,251,251,251,251,251,251,251,251,251,251,251,251,251,251,251,251,251,251,251,251,251,251,251,251,251,251,251,251,251,251,251,251,251,251,251,252,252,252,252,251,252,251,252,252,252,252,252,252,252,252,252,252,252,252,252,252,252,252,252,252,252,252,252,252,252,252,252,252,252,252,252,252,252,252,252,252,252,252,252,252,252,252,252,252,252,255,255,255,255,255,255,255,252,255,252,252,252,252,255,255,255,255,255,255,255,255,255,255,252,255,252,252,252,252,253,252,252,252,252,252,252,252,252,252,253,253,253,252,253,253,253,253,253,253,253,253,253,253,253,253,253,252,252,252,253,253,253,253,253,253,253,253,253,253,253,253,253,253,253,253,253,253,253,253,253,253,253,253,253,253,253,253,253,253,253,253,253,253,253,253,253,253,253,253,253,253,253,253,253,253,253,254,254,254,254,254,254,254,254,254,254,254,254,254,254,254,254,254,254,254,254,254,254,254,254,254,254,254,254,254,254,254,254,254,254,254,254,254,254,254,254,254,254,254,254,254,255,254,254,254,254,255,255,255,255,255,255,255,255,255,255,255,255,255,255,255,255,255,255,255,255,255,255,255,255,255,255,255,255,255,255,255,255,255,255,255,255,255,255,255,255,255,255,255,255,255,255,255,255,255,255,255,255,255,255,255,255,255,255,255,255,255,255,255,255,255,255,255,255,255,255,255,255,255,255,255,255,255,255,255,255,255,255,255,255,255,255,255,255,255,255,255,255,255,255,255,255,255,255,255,255,255,255,255,255,255,255,255,255,255,255,255,255,255,255,255,255,255,255,255,255,255,255,255,255,255,255,98,98,97,255,255,255,255,95,95,95,95,95,95,95,94,94,94,94,94,94,94,94,94,94,93,93,92,92,93,93,93,93,93,93,93,93,93,93,94,93,93,94,93,93,93,93,93,93,93,93,93,93,93,93,93,92,92,92,92,92,92,91,91,91,90,90,90,90,90,90,90,255,255,90,89,89,89,89,255,255,255,255,255,255,255,255,89,89,88,88,88,88,88,88,88,88,88,88,87,88,87,87,87,88,87,87,87,87,87,89,89,89,89,88,88,88,88,88,88,89,89,255,255,255,255,255,255,255,91,255,91,91,90,90,90,90,92,92,92,92,92,92,92,255,255,255,255,255,255,255,255,255,255,255,255,255,255,100,100,100,100,100,101,101,101,101,101,101,101,102,102,102,102,103,103,103,103,104,104,104,104,106,106,106,106,255,109,109,109,109,109,255,255,255,255,114,115,115,115,115,115,116,116,116,116,116,116,116,116,255,255,255,255,255,255,255,103,103,103,103,103,101,101,101,100,100,100,100,99,99,99,255,255,255,255,255,255,255,255
251,251,251,251,251,250,250,250,250,250,250,250,250,250,255,255,255,244,244,245,245,245,245,244,244,244,245,244,245,244,251,251,251,251,251,251,251,251,251,251,251,251,251,251,251,251,251,251,251,251,251,251,251,251,251,251,251,251,251,251,251,251,251,251,251,251,252,252,252,252,252,252,252,252,252,252,252,252,252,252,252,252,252,252,252,252,252,252,252,252,252,252,252,252,252,252,252,252,252,252,252,252,252,252,252,252,252,252,252,252,252,252,252,252,252,252,252,255,255,255,255,255,255,255,255,255,255,252,252,252,252,255,255,255,255,255,255,255,255,252,255,252,255,253,253,253,253,253,253,253,252,252,252,253,253,253,253,253,253,253,253,253,253,253,253,253,253,253,253,253,253,253,253,253,253,253,252,252,253,253,253,253,253,253,253,253,253,253,253,253,253,253,253,253,253,253,253,253,253,253,253,253,253,253,253,253,253,253,253,253,253,253,253,253,253,253,253,253,253,253,253,253,253,253,254,254,254,254,254,254,254,254,254,254,254,254,254,254,254,254,254,254,254,254,254,254,254,254,254,254,254,254,254,254,254,254,254,254,254,254,254,254,254,254,254,254,255,255,255,255,255,255,255,255,255,255,255,255,255,255,255,255,255,255,255,255,255,255,255,255,255,255,255,255,255,255,255,255,255,255,255,255,255,255,255,255,255,255,255,255,255,255,255,255,255,255,255,255,255,255,255,255,255,255,255,255,255,255,255,255,255,255,255,255,255,255,255,255,255,255,255,255,255,255,255,255,255,255,255,255,255,255,255,255,255,255,255,255,255,255,255,255,255,255,255,255,255,255,255,255,255,255,255,255,255,255,255,255,255,255,255,255,255,255,255,255,255,255,255,255,255,255,255,255,255,255,255,255,255,255,255,98,98,97,255,255,255,255,96,95,95,95,95,95,95,94,94,94,94,94,94,94,94,94,255,255,93,92,92,92,93,93,93,93,93,94,94,93,93,94,93,93,94,94,93,93,93,93,93,93,93,93,93,93,93,93,92,92,92,92,92,91,91,91,91,91,90,90,255,255,255,255,255,255,255,255,255,255,89,255,255,255,255,255,255,255,255,255,255,88,88,88,88,88,88,88,88,88,88,87,87,87,87,87,87,87,87,87,87,87,87,89,89,89,88,88,88,89,88,88,89,89,89,89,89,255,255,255,255,255,91,91,91,91,90,90,90,91,92,92,91,91,255,255,255,255,255,255,255,255,255,255,255,255,255,255,255,255,100,100,100,100,100,100,101,101,101,101,101,101,102,102,102,102,103,103,103,103,104,104,105,105,105,106,106,106,106,109,109,109,109,109,109,255,255,255,114,114,114,115,115,115,115,115,115,116,116,116,116,116,255,255,255,255,255,255,255,103,103,103,102,102,101,101,101,100,100,100,100,99,99,99,255,255,255,255,255,255,255,255
251,251,251,251,251,251,250,250,250,250,251,250,250,250,255,255,255,255,255,245,244,245,244,244,244,244,244,244,244,244,251,251,251,251,251,251,251,251,251,251,251,251,251,251,251,251,251,251,251,251,251,251,251,251,251,251,251,251,251,251,251,251,251,252,251,252,252,252,252,252,252,252,252,252,252,252,252,252,252,252,252,252,252,252,252,252,252,252,252,252,252,252,252,252,252,252,252,252,252,252,252,252,252,252,252,252,252,252,252,252,252,252,252,252,252,252,255,255,255,255,255,255,255,255,255,255,255,252,252,252,252,255,255,255,255,255,252,255,252,252,252,253,253,253,253,253,253,253,253,253,252,252,253,253,253,253,253,253,253,253,253,253,253,253,253,253,253,253,253,253,253,253,253,253,253,253,253,253,253,253,253,253,253,253,253,253,253,253,253,253,253,253,253,253,253,253,253,253,253,253,253,253,253,253,253,253,253,253,253,253,253,253,253,253,253,253,254,253,253,253,253,253,254,254,254,254,254,254,254,254,254,254,254,254,254,254,254,254,254,254,254,254,254,254,254,254,254,254,254,254,254,254,254,254,254,254,254,254,254,254,254,254,254,254,254,254,255,255,255,255,255,255,255,255,255,255,255,255,255,255,255,255,255,255,255,255,255,255,255,255,255,255,255,255,255,255,255,255,255,255,255,255,255,255,255,255,255,255,255,255,255,255,255,255,255,255,255,255,255,255,255,255,255,255,255,255,255,255,255,255,255,255,255,255,255,255,255,255,255,255,255,255,255,255,255,255,255,255,255,255,255,255,255,255,255,255,255,255,255,255,255,255,255,255,255,255,255,255,255,255,255,255,255,255,255,255,255,255,255,255,255,255,255,255,255,255,255,255,255,255,255,255,255,255,255,255,255,255,255,255,255,98,98,98,255,255,255,255,255,255,95,95,95,95,95,94,94,94,94,94,94,94,94,95,255,255,255,255,255,255,255,93,93,93,93,94,94,94,94,94,94,94,94,94,93,93,93,93,93,93,93,93,93,93,93,92,92,92,92,92,92,92,91,91,91,91,91,255,255,255,255,255,255,255,255,255,255,255,255,255,255,255,255,255,255,255,255,255,255,255,255,88,88,88,89,89,88,88,88,87,87,87,87,87,87,87,87,87,87,87,87,89,89,88,88,88,88,89,88,88,88,89,89,89,89,88,255,255,255,255,91,91,91,91,91,91,91,91,91,91,91,91,255,255,255,255,255,255,255,255,255,255,255,255,255,255,255,255,100,100,100,100,100,100,100,101,101,101,101,101,102,102,102,102,103,103,103,103,104,104,105,105,105,106,106,106,106,109,109,109,109,109,109,255,255,114,114,114,114,115,115,115,115,115,115,115,115,115,115,116,255,255,255,255,255,255,255,255,255,255,102,101,101,101,101,100,100,100,100,99,99,99,255,255,255,255,255,255,255,255
251,251,251,251,251,251,251,251,250,250,251,251,250,250,255,255,255,255,255,245,244,245,244,244,244,244,244,244,245,251,251,251,251,251,251,251,251,251,251,251,251,251,251,251,251,251,251,251,251,251,251,251,251,251,251,251,251,252,252,252,252,252,252,252,252,252,252,252,252,252,252,252,252,252,252,252,252,252,252,252,252,252,252,252,252,252,252,252,252,252,252,252,252,252,252,252,252,252,252,252,252,252,252,252,252,252,252,252,252,252,252,252,252,252,252,255,255,255,255,255,255,255,255,255,255,255,255,252,252,252,252,255,255,255,253,252,252,252,252,252,253,253,253,253,253,253,253,253,253,253,253,253,253,253,253,253,253,253,253,253,253,253,253,253,253,253,253,253,253,253,253,253,253,253,253,253,253,253,253,253,253,253,253,253,253,253,253,253,253,253,253,253,253,253,253,253,253,253,253,253,253,253,253,253,253,253,253,253,253,253,253,253,253,253,253,253,254,253,254,253,254,254,254,254,254,254,254,254,254,254,254,254,254,254,254,254,254,254,254,254,254,254,254,254,254,254,254,254,254,254,254,254,254,254,254,254,254,254,254,254,254,254,254,254,255,255,255,255,255,255,255,255,255,255,255,255,255,255,255,255,255,255,255,255,255,255,255,255,255,255,255,255,255,255,255,255,255,255,255,255,255,255,255,255,255,255,255,255,255,255,255,255,255,255,255,255,255,255,255,255,255,255,255,255,255,255,255,255,255,255,255,255,255,255,255,255,255,255,255,255,255,255,255,255,255,255,255,255,255,255,255,255,255,255,255,255,255,255,255,255,255,255,255,255,255,255,255,255,255,255,255,255,255,255,255,255,255,255,255,255,255,255,255,255,255,255,255,255,255,255,255,255,255,255,255,255,255,255,255,255,255,98,98,98,255,255,255,255,255,255,95,95,95,95,95,94,94,95,255,95,94,94,95,95,255,255,255,255,255,255,255,255,255,94,94,94,94,94,94,94,94,94,94,94,93,93,93,93,93,93,93,93,93,93,92,93,92,92,92,92,92,92,92,91,91,91,91,255,255,255,255,255,255,255,255,255,255,255,255,255,255,255,255,255,255,255,255,255,255,88,88,88,88,88,88,89,88,88,88,88,88,87,87,87,87,87,87,87,87,87,87,87,89,89,89,89,88,88,88,88,88,88,89,89,89,88,255,255,255,91,91,91,91,91,91,90,91,91,91,91,91,91,91,255,255,255,255,255,255,255,255,99,99,255,255,255,99,99,99,100,100,100,100,100,100,101,101,101,101,101,102,102,102,102,103,103,103,103,104,104,105,105,105,105,106,106,106,109,109,109,109,109,109,109,108,113,113,114,114,114,114,115,115,115,115,115,115,115,115,255,255,255,255,255,255,255,255,255,255,255,102,101,101,101,101,100,100,100,99,99,99,98,255,255,255,255,255,255,255,255
251,251,251,251,251,251,251,251,251,251,251,251,251,250,255,255,255,255,255,244,244,244,244,244,244,244,244,244,245,251,251,251,251,251,251,251,251,251,251,251,251,251,251,251,252,252,252,252,251,251,251,251,251,251,251,251,252,252,252,252,252,252,252,252,252,252,252,252,252,252,252,252,252,252,252,252,252,252,252,252,252,252,252,252,252,252,252,252,252,252,252,252,252,252,252,252,252,252,252,252,252,252,252,252,252,252,252,252,252,252,252,252,252,252,252,252,255,255,255,255,255,255,255,255,252,252,252,252,252,252,253,253,253,253,253,253,253,253,253,253,253,253,253,253,253,253,253,253,253,253,253,253,253,253,253,253,253,253,253,253,253,253,253,253,253,253,253,253,253,253,253,253,253,253,253,253,253,253,253,253,253,253,253,253,253,253,253,253,253,253,253,253,253,253,253,253,253,253,253,253,253,253,253,253,253,253,253,253,253,253,253,253,254,253,254,254,254,254,254,254,254,254,254,254,254,254,254,254,254,254,254,254,254,254,254,254,254,254,254,254,254,254,254,254,254,254,254,254,254,254,254,254,254,254,254,254,254,254,254,254,254,255,255,255,255,255,255,255,255,255,255,255,255,255,255,255,255,255,255,255,255,255,255,255,255,255,255,255,255,255,255,255,255,255,255,255,255,255,255,255,255,255,255,255,255,255,255,255,255,255,255,255,255,255,255,255,255,255,255,255,255,255,255,255,255,255,255,255,255,255,255,255,255,255,255,255,255,255,255,255,255,255,255,255,255,255,255,255,255,255,255,255,255,255,255,255,255,255,255,255,255,255,255,255,255,255,255,255,255,255,255,255,255,255,255,255,255,255,255,255,255,255,255,255,255,255,255,255,255,255,255,255,255,255,255,255,255,255,255,255,255,255,255,255,255,255,255,255,255,255,255,95,95,95,95,94,255,255,255,255,95,95,95,255,255,255,255,255,255,255,255,255,255,94,94,94,94,94,94,94,94,94,94,93,93,93,93,93,93,93,93,93,93,93,93,93,93,92,92,92,92,92,92,91,91,91,91,91,255,255,255,255,255,255,255,255,255,255,255,255,255,255,255,255,255,255,255,255,255,89,89,88,88,89,89,89,88,88,88,88,88,88,87,87,88,88,88,88,87,87,87,255,255,89,89,88,89,89,88,88,88,89,89,89,89,89,255,255,255,91,91,91,91,90,91,90,91,91,91,91,91,91,91,91,255,255,255,100,255,100,99,99,99,255,255,255,99,99,99,100,100,100,100,100,100,101,101,101,101,101,102,102,102,102,103,103,103,103,104,104,104,105,105,105,106,106,106,107,108,109,109,109,109,109,108,108,113,114,114,114,114,114,114,115,115,115,115,115,255,255,255,255,255,255,255,255,255,255,255,255,101,101,101,101,101,101,100,100,99,99,99,98,255,255,255,255,255,255,255,255
251,251,251,251,251,251,251,251,251,251,251,251,251,251,255,255,255,255,255,244,244,244,244,244,244,244,244,244,245,251,251,251,251,251,251,251,251,251,251,251,251,251,251,252,252,252,252,252,251,251,251,251,251,251,251,252,252,252,252,252,252,252,252,252,252,252,252,252,252,252,252,252,252,252,252,252,252,252,252,252,252,252,252,252,252,252,252,252,252,252,252,252,252,252,252,252,252,252,252,252,252,252,252,252,255,255,252,252,252,252,252,252,252,252,252,255,255,255,255,255,255,255,255,253,253,253,253,253,253,253,253,253,253,253,253,253,253,253,253,253,253,253,253,253,253,253,253,253,253,253,253,253,253,253,253,253,253,253,253,253,253,253,253,253,253,253,253,253,253,253,253,253,253,253,253,253,253,253,253,253,253,253,253,253,253,253,253,253,253,253,253,253,253,253,253,253,253,253,253,253,253,253,253,253,253,253,253,253,253,253,254,254,254,254,254,254,254,254,254,254,254,254,254,254,254,254,254,254,254,254,254,254,254,254,254,254,254,254,254,254,254,254,254,254,254,254,254,254,254,254,254,254,254,254,254,254,254,254,254,254,254,255,255,255,255,255,255,255,255,255,255,255,255,255,255,255,255,255,255,255,255,255,255,255,255,255,255,255,255,255,255,255,255,255,255,255,255,255,255,255,255,255,255,255,255,255,255,255,255,255,255,255,255,255,255,255,255,255,255,255,255,255,255,255,255,255,255,255,255,255,255,255,255,255,255,255,255,255,255,255,255,255,255,255,255,255,255,255,255,255,255,255,255,255,255,255,255,255,255,255,255,255,255,255,255,255,255,255,255,255,255,255,255,255,255,255,255,255,255,255,255,255,255,255,255,255,255,255,255,255,255,255,255,255,255,255,255,255,255,255,255,255,255,255,255,255,255,255,255,255,255,255,95,95,95,95,255,255,255,255,255,255,255,255,255,255,255,255,255,255,255,255,255,95,94,94,94,94,94,94,94,94,94,93,93,93,93,93,93,93,93,93,93,92,92,92,92,92,92,92,92,92,92,92,91,91,91,255,255,255,255,255,255,255,255,255,255,255,255,255,255,255,255,255,255,90,255,255,255,89,89,89,89,89,88,89,88,89,88,88,88,88,88,87,88,88,87,87,87,87,87,255,88,88,255,88,89,88,88,88,88,88,88,89,89,89,91,91,255,91,91,91,90,90,90,90,91,91,91,91,91,91,91,91,255,255,255,255,100,100,99,99,99,99,98,98,99,99,99,99,99,100,100,100,100,101,101,101,101,101,102,102,102,103,103,103,103,103,104,104,104,105,105,105,106,106,106,106,108,109,109,109,109,109,109,113,113,113,114,114,114,114,114,114,115,115,115,115,255,255,255,255,255,255,255,255,255,255,255,255,101,101,101,101,101,100,100,100,99,99,99,98,255,255,255,255,255,255,255,255
251,251,251,251,251,251,251,251,251,251,251,251,251,251,255,255,255,255,255,244,244,244,244,244,244,244,245,245,245,251,251,251,251,251,251,251,251,251,251,251,251,251,252,252,252,252,252,252,251,251,251,251,251,251,252,252,252,252,252,252,252,252,252,252,252,252,252,252,252,252,252,252,252,252,252,252,252,252,252,252,252,252,252,252,252,252,252,252,252,252,252,252,252,252,252,252,252,252,252,252,252,252,252,255,255,255,255,255,252,252,252,255,255,255,255,255,255,255,255,255,255,255,253,253,253,253,253,253,253,253,253,253,253,253,253,253,253,253,253,253,253,253,253,253,253,253,253,253,253,253,253,253,253,253,253,253,253,253,253,253,253,253,253,253,253,253,253,253,253,253,253,253,253,253,253,253,253,253,253,253,253,253,253,253,253,253,253,253,253,253,253,253,253,253,253,253,253,253,254,253,253,253,253,253,253,253,253,254,254,254,254,254,254,254,254,254,254,254,254,254,254,254,254,254,254,254,254,254,254,254,254,254,254,254,254,254,254,254,254,254,254,254,254,254,254,254,254,254,254,254,254,254,254,255,254,255,255,255,255,255,255,255,255,255,255,255,255,255,255,255,255,255,255,255,255,255,255,255,255,255,255,255,255,255,255,255,255,255,255,255,255,255,255,255,255,255,255,255,255,255,255,255,255,255,255,255,255,255,255,255,255,255,255,255,255,255,255,255,255,255,255,255,255,255,255,255,255,255,255,255,255,255,255,255,255,255,255,255,255,255,255,255,255,255,255,255,255,255,255,255,255,255,255,255,255,255,255,255,255,255,255,255,255,255,255,255,255,255,255,255,255,255,255,255,255,255,255,255,255,255,255,255,255,255,255,255,255,255,255,255,255,255,255,255,255,255,255,255,255,255,255,255,255,255,255,255,255,255,255,255,255,255,255,255,255,255,255,255,255,255,255,255,255,255,255,255,255,255,255,255,255,255,255,255,94,94,94,94,94,94,94,94,93,93,93,93,93,93,93,93,92,92,92,92,92,92,92,92,92,92,92,92,92,92,91,91,91,255,91,91,255,255,255,255,255,255,255,255,255,255,255,255,255,255,255,90,255,255,89,89,89,89,89,89,89,89,89,89,88,88,88,88,88,87,88,88,88,88,87,88,88,88,88,88,88,88,88,88,88,88,88,89,89,89,89,255,255,91,91,91,91,91,91,91,91,90,91,91,91,91,91,91,91,255,255,255,255,255,100,100,99,99,99,99,99,99,99,99,99,100,100,100,100,100,100,101,101,101,101,101,102,102,102,102,103,103,103,103,104,104,104,105,105,105,106,106,106,107,109,108,109,109,109,109,109,113,113,113,114,114,114,114,114,114,114,114,114,114,255,255,255,255,255,255,255,255,255,255,255,101,101,101,101,101,101,100,100,99,99,99,98,98,255,255,255,255,255,255,255,255
251,251,251,251,251,251,251,251,251,251,251,251,251,251,255,255,255,255,255,244,244,244,244,244,244,244,245,245,245,252,251,251,251,251,251,251,251,251,251,251,251,252,252,252,252,252,252,252,252,252,252,252,252,252,252,252,252,252,252,252,252,252,252,252,252,252,252,252,252,252,252,252,252,252,252,252,252,252,252,252,252,252,252,252,252,252,252,252,252,252,252,252,252,252,252,252,252,252,252,255,255,255,255,255,255,255,255,255,255,255,255,255,255,255,255,255,255,255,255,255,253,253,253,253,253,253,253,253,253,253,253,253,253,253,253,253,253,253,253,253,253,253,253,253,253,253,253,253,253,253,253,253,253,253,253,253,253,253,253,253,253,253,253,253,253,253,253,253,253,253,253,253,253,253,253,253,253,253,253,253,253,253,253,253,253,253,253,253,253,253,253,253,253,253,254,254,254,254,254,253,253,253,253,253,254,254,254,254,254,254,254,254,254,254,254,254,254,254,254,254,254,254,254,254,254,254,254,254,254,254,254,254,254,254,254,254,254,254,254,254,254,254,255,255,254,254,254,254,255,254,254,254,255,255,255,255,255,255,255,255,255,255,255,255,255,255,255,255,255,255,255,255,255,255,255,255,255,255,255,255,255,255,255,255,255,255,255,255,255,255,255,255,255,255,255,255,255,255,255,255,255,255,255,255,255,255,255,255,255,255,255,255,255,255,255,255,255,255,255,255,255,255,255,255,255,255,255,255,255,255,255,255,255,255,255,255,255,255,255,255,255,255,255,255,255,255,255,255,255,255,255,255,255,255,255,255,255,255,255,255,255,255,255,255,255,255,255,255,255,255,255,255,255,255,255,255,255,255,255,255,255,255,255,255,255,255,255,255,255,255,255,255,255,255,255,255,255,255,255,255,255,255,255,255,255,255,255,255,255,255,255,255,255,255,255,255,255,255,255,255,255,255,255,255,255,255,255,255,255,255,255,255,255,255,255,94,94,94,94,94,94,94,93,93,93,93,93,93,93,92,92,92,92,92,91,91,92,92,92,92,92,92,92,92,92,91,91,91,91,91,255,255,255,255,255,255,255,255,255,255,255,255,255,255,90,90,89,89,89,89,89,89,89,89,89,89,89,89,89,89,89,88,88,88,88,88,88,88,88,88,88,88,88,88,88,88,88,88,88,88,88,88,89,89,89,90,90,91,91,91,91,91,90,91,90,90,90,90,90,91,91,91,91,91,255,255,255,255,99,99,99,99,99,99,98,98,99,99,99,100,100,100,100,100,101,101,101,101,101,101,101,102,102,102,103,103,103,103,104,104,104,104,105,105,105,106,106,108,108,108,109,109,109,109,109,109,113,113,113,114,114,114,114,114,114,114,114,255,255,255,255,255,255,255,255,255,255,255,255,101,101,101,101,101,100,100,100,99,99,98,98,98,255,255,255,255,255,255,255,255
251,251,251,251,251,251,251,251,250,250,251,251,251,255,255,252,255,252,255,255,244,244,244,244,244,244,252,252,252,252,252,251,251,251,251,251,251,251,251,251,251,251,252,252,252,252,252,252,252,252,252,252,252,252,252,252,252,252,252,252,252,252,252,252,252,252,252,252,252,252,252,252,252,252,252,252,252,252,252,252,252,252,252,252,252,252,252,252,252,252,252,252,252,252,255,255,255,255,255,255,255,255,255,255,255,255,255,255,255,255,255,255,255,255,255,255,255,255,253,253,253,253,253,253,253,253,253,253,253,253,253,253,253,253,253,253,253,253,253,253,253,253,253,253,253,253,253,253,253,253,253,253,253,253,253,253,253,253,253,253,253,253,253,253,253,253,253,253,253,253,253,253,253,253,253,253,253,253,253,253,253,253,253,253,253,253,253,253,253,253,253,253,254,254,254,254,254,254,254,254,254,254,254,254,254,254,254,254,254,254,254,254,254,254,254,254,254,254,254,254,254,254,254,254,254,254,254,254,254,254,254,254,254,254,254,254,254,254,255,255,255,254,255,255,254,254,254,254,255,255,254,255,255,255,255,255,255,255,255,255,255,255,255,255,255,255,255,255,255,255,255,255,255,255,255,255,255,255,255,255,255,255,255,255,255,255,255,255,255,255,255,255,255,255,255,255,255,255,255,255,255,255,255,255,255,255,255,255,255,255,255,255,255,255,255,255,255,255,255,255,255,255,255,255,255,255,255,255,255,255,255,255,255,255,255,255,255,255,255,255,255,255,255,255,255,255,255,255,255,255,255,255,255,255,255,255,255,255,255,255,255,255,255,255,255,255,255,255,255,255,255,255,255,255,255,255,255,255,255,255,255,255,255,255,255,255,255,255,255,255,255,255,255,255,255,255,255,255,255,255,255,255,255,255,255,255,255,255,255,255,255,255,255,255,255,255,255,255,255,255,255,255,255,255,255,95,255,255,95,255,255,255,255,255,94,94,94,94,94,94,93,93,93,93,93,92,92,92,92,92,92,92,91,91,91,91,92,92,92,92,92,92,92,92,92,91,91,91,91,91,91,91,90,255,255,255,255,255,255,255,255,255,255,255,90,90,90,89,89,89,89,89,88,88,88,89,89,89,88,88,88,88,88,88,88,88,88,88,88,88,88,88,88,88,88,88,88,88,88,88,88,88,89,89,89,90,90,90,91,91,91,90,90,90,90,90,90,90,90,91,91,91,91,255,255,255,255,255,255,255,99,99,99,99,99,99,99,99,99,100,100,101,101,100,100,101,101,101,101,101,102,102,102,102,103,103,103,103,104,104,104,104,105,105,105,105,106,108,108,108,109,109,109,109,109,113,113,113,113,113,113,114,114,114,114,114,114,114,255,255,255,255,255,255,255,255,255,255,255,101,101,101,101,101,100,100,100,99,99,98,98,98,255,255,255,255,255,255,255,255
