934,934,935,935,935,935,935,936,936,935,935,935,936,936,936,936,936,936,936,935,935,934,935,934,934,934,934,934,934,934,934,934,934,934,934,934,934,934,934,934,933,933,934,934,934,934,934,935,935,936,936,935,935,935,935,935,935,935,935,935,934,935,934,934,934,934,934,934,934,935,935,935,935,935,935,936,936,935,935,936,936,936,936,936,936,936,936,936,935,935,935,936,935,936,935,936,936,936,936,936,936,936,936,936,935,936,936,936,935,935,935,935,935,935,936,936,936,936,936,936,936,936,936,936,936,936,936,936,936,936,936,936,936,936,936,936,936,936,936,936,936,936,936,937,937,937,937,937,937,936,936,936,936,936,936,936,936,936,936,936,936,936,936,936,936,936,936,936,936,936,936,937,937,936,937,937,937,937,937,937,936,936,937,937,937,937,937,937,936,936,936,936,936,936,936,935,935,936,935,935,935,935,935,935,936,936,936,936,937,937,937,937,937,936,936,936,936,935,935,935,935,936,936,936,936,936,935,935,935,935,935,935,935,935,934,935,935,935,934,934,935,935,935,935,935,935,935,935,934,934,934,934,935,935,935,934,934,934,934,934,934,934,934,934,934,934,934,934,934,934,934,934,934,934,934,934,934,934,934,934,934,934,934,933,934,934,934,934,934,935,935,935,934,934,934,934,934,934,935,935,936,936,936,936,935,935,935,935,934,934,934,934,934,934,934,934,934,934,934,935,934,934,934,934,934,934,934,933,933,933,933,933,933,933,933,933,933,933,933,933,933,933,933,933,933,933,933,933,933,933,933,933,933,933,933,933,933,933,933,933,933,933,933,933,933,933,933,932,933,933,933,933,932,933,933,932,932,932,932,933,933,933,933,933,933,933,933,932,933,933,933,933,933,933,933,933,933,933,933,933,933,933,933,933,933,933,932,933,932,932,932,932,932,932,932,932,932,932,932,932,932,932,932,933,933,933,933,933,933,933,933,933,933,933,932,932,932,932,932,932,932,932,932,932,932,932,932,932,932,932,932,932,932,932,932,932,932,932,932,932,932,932,932,932,932,932,932,932,932,932,932,932,932,932,932,932,932,932,932,932,932,932,932,932,932,932,932,932,932,932,932,932,932,932,932,932,932,932,932,933,933,933,933,933,933,933,933,932,932,932,932,932,932,932,932,932,933,932,933,933,933,932,932,933,933,933,932,932,932,932,932,932,932,932,933,932,932,932,933,932,932,932,932,932,932,932,932,933,933,933,933,933,933,933,933,933,933,933,933,932,932,932,932,932,932,932,932,932,931,932,932,932,932,932,932,932,932,932,932,932,932,932,932,932,932,932,932,932,932,932,932,931,931,931,931,931,931,931,931,931,931,931,931,930,930,930,930,930,930,930,930,930,931,931,931,931,931,932,932,932,931,931,931,931,930,930,930,930,930,931,930,930,2047,2047,2047,2047,2047,2047,2047,2047
934,934,935,935,935,935,935,936,936,936,935,936,936,936,936,936,936,936,936,935,935,934,934,934,934,934,934,934,934,935,935,934,934,934,934,934,935,934,934,934,934,934,934,934,934,934,934,935,935,936,936,936,935,935,935,935,935,935,935,935,935,935,935,935,935,935,935,935,935,935,935,935,935,935,935,935,935,935,935,935,936,935,935,936,936,937,936,936,936,936,936,936,936,936,936,936,937,936,936,936,937,937,937,936,936,936,936,936,936,936,936,936,936,936,936,936,937,937,936,936,936,936,936,936,936,936,936,936,936,936,936,936,936,936,936,936,936,936,937,936,936,936,937,937,937,937,937,937,937,937,937,937,937,936,936,936,936,936,936,936,936,937,936,936,936,937,936,937,937,936,937,937,937,937,937,937,937,937,937,937,937,937,937,937,937,937,937,937,936,936,936,936,936,936,937,936,937,936,936,936,935,935,935,936,936,936,936,937,937,937,937,937,937,937,936,936,936,936,936,936,936,936,936,936,936,936,935,935,935,935,935,935,935,935,935,935,935,935,935,935,935,935,936,935,935,935,935,935,935,935,935,935,935,935,936,935,935,935,935,935,935,935,935,934,934,934,934,934,934,934,934,935,935,935,935,935,934,934,934,934,934,934,934,934,934,934,934,934,935,935,935,935,934,934,934,934,934,934,934,935,935,936,936,936,936,935,935,935,935,934,934,934,934,934,934,934,934,934,934,934,934,935,934,934,934,934,934,933,933,933,933,933,933,933,933,933,933,933,933,933,933,933,933,933,933,933,933,933,933,933,933,933,933,933,933,933,933,933,933,933,933,933,933,933,933,933,933,933,933,933,933,933,933,933,933,933,933,933,933,933,933,933,933,933,933,933,933,933,933,933,933,933,933,933,933,933,933,933,933,933,933,933,933,933,933,933,933,933,933,933,933,933,933,933,933,933,933,933,933,932,933,933,933,933,933,933,933,933,933,933,933,933,933,932,932,932,932,932,932,932,932,932,932,932,932,932,932,932,932,932,932,933,933,933,933,932,933,933,933,932,932,932,932,932,932,933,933,933,933,933,933,933,933,933,932,932,932,932,932,933,932,932,932,932,932,932,933,932,932,933,933,933,933,933,933,932,933,933,933,933,933,933,933,933,933,933,933,933,933,933,933,933,933,932,933,932,933,933,933,933,933,933,933,933,933,933,933,933,932,933,933,932,932,932,932,932,933,933,933,933,933,932,932,933,932,932,932,933,933,933,933,933,933,933,933,933,933,933,933,933,932,932,932,932,932,932,932,932,932,932,933,932,932,932,932,932,932,932,932,932,932,932,932,933,933,933,933,932,932,932,932,932,932,932,932,932,931,931,931,931,931,932,932,931,931,931,931,931,931,930,930,931,931,931,931,931,931,932,932,931,931,931,931,930,930,929,929,930,930,931,931,931,2047,2047,2047,2047,2047,2047,2047,2047
935,935,936,936,936,936,936,936,936,936,936,936,936,936,936,936,936,936,936,936,936,935,935,935,935,935,935,936,936,936,934,935,935,935,935,934,935,934,934,934,934,934,934,934,934,934,935,935,936,936,936,936,936,936,936,936,936,936,936,935,935,936,935,935,935,935,936,936,936,936,936,936,936,936,936,936,936,936,936,936,937,936,936,936,936,937,937,936,936,936,936,936,936,936,936,936,937,937,936,936,937,937,937,936,936,936,937,937,936,936,937,937,937,937,937,937,937,937,936,936,937,936,937,937,937,937,937,937,937,937,936,936,936,936,937,937,937,937,937,937,937,937,937,937,937,937,937,937,937,937,937,937,937,937,937,937,937,937,937,936,937,937,937,937,937,937,936,937,937,937,937,937,937,937,937,937,937,937,937,937,937,937,937,937,937,937,937,937,937,937,937,937,937,937,937,937,937,937,937,936,936,936,936,936,936,937,937,937,937,937,937,937,937,936,936,936,936,936,936,936,936,936,936,936,936,936,935,935,935,935,936,936,936,936,936,936,936,936,935,935,936,936,936,936,936,935,935,935,935,935,935,935,936,936,936,936,936,935,936,935,935,935,935,935,934,934,934,934,934,935,935,935,935,935,935,935,935,935,934,934,934,934,934,934,934,934,934,934,934,935,935,935,934,934,934,934,934,935,935,935,936,936,936,936,936,936,936,935,935,935,935,934,934,934,934,934,934,934,934,935,934,935,935,935,935,934,934,933,934,933,933,933,933,933,933,933,933,933,933,933,934,933,934,934,934,934,934,934,934,934,934,934,934,934,933,933,933,933,933,933,933,933,933,933,933,933,933,933,933,933,933,933,933,933,933,933,933,933,933,933,933,933,933,933,933,933,933,933,933,933,933,933,933,933,933,933,933,933,933,933,933,933,933,933,933,933,933,933,933,933,933,933,933,933,933,933,933,933,933,933,933,933,933,933,933,933,933,933,933,933,934,933,933,933,933,933,933,933,932,933,933,933,933,933,933,932,933,932,932,933,933,933,933,933,933,933,933,933,933,933,933,933,933,933,933,933,933,933,933,933,933,933,933,933,933,933,933,933,933,933,933,932,932,933,933,933,933,933,933,933,933,933,933,933,933,933,933,933,933,933,933,933,933,934,933,933,933,933,933,933,933,933,933,933,933,933,933,933,933,933,933,933,933,933,933,933,933,933,933,933,933,933,933,933,933,933,933,933,933,933,933,933,933,933,933,933,933,933,933,933,933,933,933,934,933,933,933,933,934,933,933,933,932,932,933,933,933,933,933,933,933,933,933,933,933,933,932,932,932,932,933,933,933,933,933,933,933,932,932,932,932,932,932,932,932,932,931,931,931,932,932,932,932,932,932,932,932,932,932,931,931,932,932,932,931,931,931,932,932,931,931,931,930,930,930,929,929,929,930,931,931,932,2047,2047,2047,2047,2047,2047,2047,2047
936,936,936,936,936,936,936,937,936,936,937,936,936,936,936,936,937,937,936,936,936,936,936,936,936,936,936,936,936,936,936,935,935,935,935,935,935,935,935,935,935,935,935,935,935,935,936,936,936,937,937,937,937,936,936,936,936,936,936,936,936,937,936,936,936,936,936,937,936,936,936,936,936,936,936,936,936,936,936,936,937,936,936,937,937,937,937,937,936,937,937,937,936,936,936,937,937,937,937,937,937,937,937,937,937,937,937,937,937,937,937,937,937,937,937,937,937,937,937,937,937,937,937,937,937,937,937,937,937,937,937,936,936,936,937,937,937,937,937,937,937,937,937,937,937,937,937,937,937,937,937,937,937,937,937,937,937,937,937,937,937,937,937,937,937,937,937,937,937,937,937,937,937,937,937,937,937,937,937,937,937,937,937,937,938,938,937,937,937,937,937,938,937,937,938,937,938,937,937,937,937,936,936,937,937,937,937,937,937,937,937,937,937,937,937,937,937,937,937,937,937,937,937,936,936,936,936,935,935,936,936,936,936,936,936,936,936,936,936,936,936,936,936,936,936,936,936,936,936,936,936,936,936,936,937,937,937,936,936,936,936,936,936,935,935,935,935,935,935,935,935,935,936,936,936,935,935,935,935,935,934,935,934,934,934,934,935,935,934,935,935,935,935,934,934,934,935,935,935,935,936,936,937,937,937,936,936,936,936,935,935,935,935,935,934,935,934,934,935,935,935,935,935,935,935,935,935,934,934,933,933,933,933,934,933,933,933,933,933,934,934,934,934,934,934,934,934,934,934,934,934,934,934,933,933,933,933,933,933,933,933,933,934,934,934,933,934,934,934,934,933,934,933,934,933,933,933,933,933,934,934,934,934,934,934,934,934,933,933,933,933,934,933,934,933,933,933,933,933,933,933,933,933,933,933,933,933,933,933,933,933,933,933,933,933,933,933,933,933,933,933,933,933,933,933,933,934,934,934,933,934,934,933,934,933,933,933,933,933,933,933,933,933,933,933,933,933,933,933,933,933,933,933,933,933,933,933,933,933,933,933,933,933,933,933,933,933,933,933,933,933,933,933,933,933,933,933,933,933,933,933,933,933,933,933,933,933,933,933,933,933,933,933,933,933,933,933,933,933,934,934,934,934,934,933,933,934,933,933,933,933,933,933,933,933,933,933,933,933,933,933,933,933,934,933,933,933,933,933,933,933,933,933,933,933,933,933,933,933,933,933,933,933,933,933,933,933,933,933,933,933,933,934,934,934,934,933,933,934,933,933,933,933,933,933,933,933,933,933,933,933,933,933,933,933,933,933,933,933,933,933,933,933,933,933,932,932,932,932,932,932,932,932,932,932,932,932,932,932,932,932,932,932,932,932,932,933,932,932,932,932,932,932,932,932,931,931,932,932,931,931,931,931,931,931,929,929,930,931,931,931,932,2047,2047,2047,2047,2047,2047,2047,2047
936,936,936,936,936,936,937,937,937,937,937,937,937,937,937,937,937,937,936,936,936,936,936,936,936,936,936,936,937,937,937,936,936,936,936,936,936,936,935,935,935,935,935,935,935,935,936,936,937,937,937,937,937,936,937,937,937,937,937,937,937,937,937,937,937,937,937,937,937,936,936,936,936,937,936,936,936,936,936,936,937,936,937,937,937,937,937,937,937,937,937,937,937,937,937,937,937,937,937,937,937,937,937,937,937,937,937,937,937,937,937,938,938,938,937,937,937,937,937,937,937,937,937,937,937,937,937,937,937,937,937,937,937,937,937,937,937,937,937,937,938,937,937,937,938,938,938,938,938,938,938,938,938,938,938,938,938,937,938,937,938,937,937,937,937,937,937,937,937,937,937,937,937,937,937,937,937,937,937,937,937,937,937,937,938,938,937,937,937,937,937,938,937,937,938,937,938,938,937,937,937,937,937,937,937,937,937,937,937,937,937,937,937,937,937,937,937,937,937,937,937,937,937,937,937,937,936,936,936,936,936,936,937,937,937,937,937,937,937,936,936,937,937,937,936,936,936,936,936,936,936,936,937,937,937,937,937,937,937,937,936,936,936,936,935,935,935,935,936,935,936,936,936,936,936,935,935,935,935,935,935,935,935,935,935,935,936,935,935,936,936,936,935,935,934,935,935,935,936,936,936,936,937,937,937,936,936,936,936,936,936,935,935,935,935,935,935,935,935,935,935,935,936,935,935,935,935,934,934,934,934,934,934,934,934,934,934,934,934,934,934,934,934,934,934,934,935,934,934,935,934,934,934,934,934,934,934,934,934,934,934,934,934,934,934,934,934,934,934,934,934,934,934,934,934,933,933,934,933,934,934,934,934,934,934,934,934,934,934,934,934,934,934,934,934,934,934,934,934,933,933,933,933,933,933,933,933,933,933,933,933,933,933,933,933,933,934,934,934,934,934,934,934,934,934,934,934,934,934,934,934,934,934,934,934,934,934,934,933,933,933,933,933,933,933,933,933,933,933,933,933,933,933,933,933,934,934,934,934,933,933,933,933,933,933,933,933,933,933,933,933,933,933,933,933,933,933,933,933,933,933,933,933,933,933,933,933,933,933,933,933,933,933,934,933,933,934,934,934,934,934,934,934,935,934,934,934,933,934,933,933,933,933,933,933,933,933,933,933,933,933,933,933,934,934,933,933,933,933,933,933,933,933,933,933,933,933,933,933,933,933,933,933,933,933,933,933,933,933,934,933,934,934,934,934,934,934,934,934,933,933,933,933,933,933,933,933,933,933,933,933,933,933,933,933,933,933,933,933,933,933,933,933,933,933,933,932,932,933,932,932,932,932,932,932,932,932,932,932,932,933,933,933,933,933,933,933,932,932,932,932,932,932,932,932,932,932,932,932,932,932,931,931,931,931,931,931,931,931,932,932,932,2047,2047,2047,2047,2047,2047,2047,2047
937,937,937,936,936,937,937,937,937,937,937,937,937,937,937,937,937,937,936,937,936,936,937,937,937,937,937,937,937,937,937,937,937,936,936,936,936,936,936,936,935,936,935,935,935,936,936,937,937,937,937,937,937,937,937,937,937,937,937,938,937,938,938,937,937,937,937,937,937,937,936,937,936,937,936,936,936,936,937,937,937,937,937,937,937,938,937,937,937,937,937,937,937,937,937,937,937,937,937,937,937,937,937,937,937,938,938,938,938,938,938,938,938,938,938,938,937,937,937,937,937,937,937,938,938,938,938,938,938,937,937,937,937,937,937,937,937,937,938,938,938,938,937,937,938,938,938,938,938,938,938,938,938,938,938,938,938,938,938,938,938,937,937,937,937,937,937,937,937,937,937,937,938,937,938,938,937,937,938,938,937,938,938,938,938,938,938,938,938,938,938,938,937,937,938,937,938,938,937,937,937,937,937,937,937,937,937,937,937,937,937,937,937,937,937,937,937,937,937,937,937,937,937,937,937,937,937,936,936,937,937,937,937,937,937,937,937,937,937,937,937,937,937,937,937,937,936,937,937,936,936,937,937,937,937,937,937,937,937,937,936,936,936,936,936,936,936,936,936,936,936,936,936,936,936,936,936,936,935,935,935,935,935,935,935,936,936,936,936,936,936,936,936,935,935,936,936,936,936,936,937,937,937,937,937,937,936,936,936,936,936,936,935,936,936,936,935,935,935,935,936,936,936,935,936,935,935,934,934,934,934,934,934,935,935,935,934,935,934,934,935,934,935,935,935,935,935,935,935,935,935,935,935,934,934,934,934,934,934,934,935,934,935,934,934,934,935,935,935,935,935,935,935,935,934,934,934,934,934,934,934,934,934,934,934,934,934,934,934,934,934,935,934,934,934,934,934,934,934,934,933,934,934,933,933,933,933,933,933,933,933,934,933,933,933,934,934,934,934,934,934,934,934,934,934,934,934,934,934,934,934,934,934,935,934,934,934,934,934,934,934,933,933,934,933,933,933,933,933,933,933,933,933,933,933,934,934,934,934,934,934,934,934,933,933,933,933,934,933,934,934,933,933,934,934,934,934,934,934,934,934,933,934,934,934,933,934,934,934,934,934,934,934,934,934,934,934,934,934,934,934,934,934,934,934,934,934,934,934,934,934,934,933,933,933,933,933,933,934,934,934,934,933,934,934,934,934,933,933,933,934,933,933,933,933,933,934,934,933,933,933,933,933,933,933,933,933,934,934,934,934,934,934,934,934,934,935,935,934,934,933,933,933,933,933,933,933,933,933,934,934,934,933,933,933,933,933,933,933,933,933,933,933,933,933,933,933,933,933,933,933,933,933,933,932,932,932,932,932,933,933,933,933,933,933,933,933,932,932,932,932,932,932,932,932,932,932,932,932,932,932,931,931,931,932,931,931,931,931,932,932,932,2047,2047,2047,2047,2047,2047,2047,2047
937,937,937,937,937,937,937,937,937,937,937,937,937,937,937,936,937,937,937,937,937,937,937,937,937,937,937,937,938,937,937,937,936,936,936,936,936,936,936,936,936,936,936,936,936,937,937,937,938,937,937,937,937,937,937,937,938,938,938,938,938,938,938,938,937,937,938,937,937,937,937,937,937,937,937,937,937,937,937,937,937,937,937,937,937,938,938,938,938,937,937,937,938,937,938,938,938,938,938,938,938,938,938,938,938,938,938,938,938,938,938,938,938,938,938,938,938,937,937,937,938,938,938,938,938,938,938,938,938,938,938,937,937,937,937,938,938,938,938,938,938,938,938,938,938,938,938,938,938,938,938,938,938,938,938,938,938,938,938,938,938,938,938,937,937,938,937,938,938,938,938,938,938,938,938,938,938,938,938,938,938,938,938,938,938,938,938,938,938,938,938,938,937,937,938,937,938,938,937,937,937,937,937,937,937,937,938,938,938,937,937,937,937,937,937,937,938,938,938,938,938,938,937,937,937,937,937,937,937,937,937,937,937,937,937,937,937,937,937,937,937,937,937,937,937,937,937,937,937,937,937,937,937,937,937,937,937,937,937,937,937,937,937,937,936,936,936,936,936,936,936,936,937,936,936,936,936,936,936,936,936,936,936,936,936,936,936,936,936,937,936,936,936,936,936,937,937,936,937,937,937,937,937,937,937,937,937,937,937,937,937,936,936,936,936,936,936,936,936,936,936,936,936,936,936,936,936,935,935,935,935,935,935,935,935,935,935,935,935,935,935,935,935,935,935,936,936,935,936,936,935,935,935,935,935,935,935,935,935,935,935,935,935,935,935,935,935,936,936,936,936,936,936,936,935,935,935,935,934,935,935,934,935,934,935,935,935,935,934,935,935,935,935,935,934,934,934,934,934,934,934,934,934,934,934,934,934,934,934,934,934,934,934,934,934,934,934,934,935,935,935,935,935,935,935,935,935,935,935,935,935,935,935,935,935,935,935,935,934,934,934,934,934,934,934,934,934,934,934,933,933,933,933,934,934,934,934,935,935,934,934,934,934,934,934,934,933,934,934,934,934,934,934,934,934,934,935,934,934,934,934,934,934,935,934,934,934,934,935,934,934,934,934,934,934,934,935,935,935,935,935,935,935,935,934,934,934,934,934,934,934,934,934,934,934,934,934,934,934,934,934,934,934,934,934,934,934,933,933,933,934,934,933,933,934,934,934,934,934,934,934,934,934,933,934,934,934,934,935,934,935,935,935,935,934,934,935,934,934,933,933,933,933,933,933,933,933,933,934,933,934,934,933,933,933,934,933,933,933,933,933,933,933,933,933,933,933,933,933,933,933,933,933,933,933,933,932,932,932,933,933,933,933,933,933,933,933,933,933,932,932,932,933,933,932,932,932,932,932,932,932,931,931,931,931,931,931,931,932,932,932,932,2047,2047,2047,2047,2047,2047,2047,2047
937,937,937,937,937,937,937,937,937,937,937,937,937,937,937,936,937,937,937,937,937,937,937,938,938,938,938,938,938,938,937,937,937,937,937,937,937,936,937,937,937,937,937,937,937,938,937,937,938,938,938,937,937,937,937,937,938,938,938,938,938,938,938,938,938,938,938,938,938,937,937,937,937,937,937,937,937,937,937,937,938,937,938,938,937,938,938,938,938,937,938,938,938,938,938,938,938,938,938,938,938,938,938,938,938,938,938,938,938,938,938,938,938,938,938,938,938,938,938,938,938,938,938,938,939,938,938,938,938,938,938,938,937,938,938,938,938,938,938,938,939,938,938,938,938,938,938,938,938,938,938,938,938,938,938,938,938,938,938,938,938,938,938,938,938,938,938,938,938,938,938,938,938,938,938,938,938,938,938,938,938,938,938,938,938,938,938,938,938,938,938,938,938,938,938,938,938,938,938,937,938,937,938,938,938,938,938,938,938,938,937,937,937,937,937,938,938,938,938,938,938,938,938,937,937,937,937,937,937,938,938,937,937,938,937,937,937,937,937,938,938,937,937,937,937,937,937,937,937,937,937,937,937,937,937,937,937,937,937,937,937,937,937,937,937,937,937,937,937,937,937,937,937,937,937,937,937,937,936,936,936,936,936,936,936,937,936,936,936,937,937,937,937,937,937,937,937,937,937,937,937,937,937,937,937,937,937,937,937,937,937,937,937,937,937,937,937,936,936,937,936,937,936,936,936,936,936,935,935,935,935,935,935,935,936,936,935,935,935,935,935,935,936,936,935,936,936,936,936,936,936,935,936,935,935,935,936,936,936,936,936,936,936,936,936,936,936,936,936,936,936,936,936,936,936,935,935,935,935,935,935,934,935,935,935,935,935,935,935,935,935,935,935,935,934,934,934,934,934,934,934,934,934,934,934,934,934,934,934,934,935,935,934,934,934,935,935,935,935,935,935,935,935,935,935,935,935,935,935,935,935,935,935,936,935,936,936,935,935,935,935,934,934,935,934,935,934,934,934,934,934,934,934,934,934,935,935,935,935,935,935,935,935,934,934,934,933,934,934,934,934,934,934,935,935,935,935,936,935,935,935,935,935,935,935,935,935,935,935,935,935,935,935,935,935,935,935,935,935,935,935,935,935,935,934,934,934,934,934,934,934,934,934,934,935,935,935,935,935,935,935,934,934,934,934,934,933,933,933,933,934,934,933,934,934,934,934,934,933,934,934,934,934,934,934,935,935,935,935,935,935,935,935,935,935,935,935,935,935,934,934,934,934,934,934,934,934,934,934,934,934,934,934,934,934,934,934,934,934,934,934,933,933,933,933,933,933,933,933,933,933,933,933,933,933,933,933,933,933,933,933,933,933,933,933,933,933,933,933,933,933,933,933,933,933,933,932,933,933,933,933,932,932,932,932,932,932,932,932,932,932,932,2047,2047,2047,2047,2047,2047,2047,2047
937,937,937,937,937,937,937,937,937,937,937,937,937,937,937,937,937,937,937,937,937,937,937,938,938,938,938,938,938,938,938,938,937,937,937,937,937,937,938,937,938,938,938,938,938,938,938,938,938,938,938,938,938,938,938,938,938,938,937,938,938,938,938,938,938,938,938,938,938,937,937,937,937,937,937,937,937,937,937,937,937,937,938,938,937,938,938,938,938,938,938,938,938,938,938,938,938,938,938,938,938,938,938,938,938,938,938,938,938,938,938,938,938,938,938,938,938,938,938,938,938,938,939,939,939,939,939,939,938,938,938,938,938,938,938,938,938,938,938,938,939,938,939,938,939,939,938,938,938,938,938,939,938,939,939,939,939,939,939,938,939,938,938,938,938,938,938,938,938,939,938,939,938,938,938,938,938,938,939,938,938,938,938,938,938,938,938,938,938,938,938,938,938,938,938,938,938,938,938,938,938,938,938,938,938,938,938,938,938,938,938,938,937,937,938,938,938,938,938,938,938,938,938,938,938,938,938,938,938,938,938,938,938,938,938,938,938,938,938,938,938,938,938,938,938,938,937,937,938,938,938,938,938,937,937,937,937,937,937,937,937,937,937,937,937,937,937,937,937,937,937,937,937,937,937,937,937,937,937,937,937,937,937,937,937,937,937,937,937,937,937,937,937,937,937,937,937,937,937,937,937,937,937,937,937,937,937,937,937,937,937,937,937,937,937,937,937,937,937,937,937,937,937,936,937,937,936,935,936,935,936,936,936,936,936,936,936,936,936,935,935,936,936,936,936,936,936,936,936,936,936,936,936,936,935,936,936,936,936,936,936,936,936,936,936,936,936,936,936,936,936,936,936,936,936,936,936,936,935,935,935,935,935,935,936,936,936,936,936,935,935,935,935,935,934,934,934,934,935,935,934,934,934,935,935,935,935,935,935,935,935,935,935,935,935,935,935,935,935,936,936,936,936,936,935,935,935,935,935,935,935,935,936,936,936,936,936,936,936,936,936,935,935,935,935,935,935,935,935,934,934,934,934,934,935,935,935,935,936,936,936,935,935,935,935,934,934,934,934,934,934,934,934,935,935,935,936,936,936,935,935,935,935,935,935,935,935,935,936,935,935,935,935,935,936,936,936,936,936,936,935,935,935,935,935,935,934,934,934,934,934,934,935,935,935,935,936,936,936,935,935,935,935,935,934,934,934,934,933,934,934,934,934,934,935,935,935,934,934,934,934,934,934,934,935,935,935,936,936,935,935,935,935,935,935,935,935,935,935,934,934,934,934,934,934,934,934,934,935,935,935,935,935,935,935,935,935,935,935,935,935,935,934,934,934,934,934,934,934,934,934,934,933,933,933,933,933,933,933,933,933,933,933,933,933,933,933,933,933,933,933,933,933,933,933,933,933,933,933,933,933,933,932,932,932,932,932,932,932,932,932,933,2047,2047,2047,2047,2047,2047,2047,2047
937,937,937,937,937,937,937,937,937,937,937,937,937,937,938,938,938,938,937,937,937,937,937,938,938,938,938,938,939,938,938,938,938,937,937,937,937,938,938,938,938,938,938,938,938,938,938,938,938,939,938,938,938,938,938,938,938,938,938,938,938,938,938,938,938,938,938,938,938,938,937,937,937,937,937,937,937,937,937,937,938,937,938,938,938,938,938,938,938,938,938,938,938,938,938,938,938,938,938,938,938,938,938,938,938,938,938,938,938,938,938,938,938,938,938,938,938,938,938,938,938,939,939,939,939,939,939,939,939,938,938,938,938,938,938,938,938,939,939,939,939,939,939,939,939,939,939,939,939,938,938,939,938,939,939,939,939,939,939,939,939,939,938,938,938,938,938,938,939,939,939,939,939,939,938,938,938,938,939,939,938,939,939,939,939,939,938,938,938,938,938,938,938,938,938,938,938,938,938,938,938,938,938,938,938,938,938,938,938,938,938,938,938,938,938,938,938,938,938,938,938,938,938,938,938,938,938,938,938,938,938,938,938,938,938,938,938,938,938,938,938,938,938,938,938,938,938,938,938,938,938,938,938,938,937,938,938,937,938,938,937,937,938,937,937,937,937,937,937,937,937,937,937,937,937,937,937,937,937,937,937,937,937,937,937,937,937,937,937,937,937,937,937,937,937,937,937,937,938,938,938,938,938,938,938,938,938,938,937,937,937,937,937,937,937,937,937,937,937,937,937,937,937,937,937,937,937,936,936,936,936,936,936,936,936,936,936,936,936,936,936,936,936,936,936,936,936,936,936,936,936,936,936,936,936,936,936,936,936,936,936,936,936,936,936,936,936,936,936,936,936,937,936,936,936,936,936,936,936,936,936,936,936,936,936,936,936,936,936,936,935,935,935,935,935,935,935,935,935,935,935,935,935,935,936,936,935,935,936,936,936,936,935,935,935,936,936,936,936,936,936,936,936,936,936,936,936,936,935,936,936,936,936,936,936,936,936,936,936,936,936,936,936,936,935,935,935,935,935,935,935,935,935,935,935,935,936,936,936,936,936,936,935,935,935,935,935,935,935,935,935,935,935,936,936,936,936,936,936,936,936,936,936,936,935,935,936,936,936,935,936,936,936,936,936,936,936,936,936,936,936,935,935,935,935,935,934,934,934,934,934,935,935,936,936,936,936,936,936,936,936,935,935,935,935,935,934,934,934,935,935,935,935,935,935,935,935,935,934,934,935,935,935,935,935,936,936,936,936,936,936,936,935,935,935,936,936,935,935,935,935,935,935,935,934,935,934,935,935,935,935,935,936,936,936,936,936,936,936,936,935,935,935,935,934,935,934,934,934,934,934,934,934,934,933,933,933,933,933,933,933,933,933,933,933,933,933,933,933,933,933,933,933,933,933,933,933,933,933,933,934,933,933,933,932,932,932,932,932,932,932,932,2047,2047,2047,2047,2047,2047,2047,2047
937,937,938,938,938,938,937,938,938,938,938,937,937,937,938,938,938,938,937,937,937,937,937,938,938,938,938,938,939,938,938,938,938,937,937,938,938,938,938,938,938,938,939,938,938,938,938,938,938,938,938,938,938,938,938,938,938,938,938,938,938,938,938,938,938,938,938,938,938,938,937,937,937,938,937,938,938,937,938,938,938,937,938,938,938,938,938,938,938,938,938,938,939,938,938,938,938,938,938,938,938,939,938,938,938,938,938,938,938,938,938,938,939,939,939,938,938,938,938,939,939,939,940,940,940,940,940,940,939,939,939,939,939,939,939,939,939,939,939,939,939,939,939,939,939,940,939,939,939,939,938,939,938,939,939,939,939,940,940,939,939,939,939,939,939,939,939,939,939,939,939,939,939,939,939,939,939,939,939,939,939,939,939,939,939,939,939,938,939,938,938,938,938,939,939,939,938,939,939,938,938,938,938,939,939,938,939,939,938,938,938,938,938,938,938,938,938,938,938,938,938,938,938,938,938,938,938,938,938,938,938,938,938,938,938,938,938,938,938,938,938,938,938,938,938,938,937,937,938,938,938,938,938,938,938,938,938,938,938,938,938,938,938,938,937,937,937,937,938,938,937,937,937,937,937,937,937,937,938,938,938,938,938,937,938,938,937,937,938,938,937,938,937,937,938,938,938,938,938,938,938,938,938,938,938,938,938,938,937,937,937,937,937,937,937,937,937,937,937,937,937,937,937,937,937,937,937,936,936,936,936,936,936,936,936,936,936,936,936,936,936,936,936,937,937,937,937,937,936,936,936,936,936,936,936,936,936,936,936,936,937,937,936,936,937,937,937,936,936,936,937,937,936,936,936,936,936,936,936,936,936,936,936,936,936,936,936,936,936,936,936,936,935,935,935,935,935,935,936,936,936,936,936,936,936,936,936,936,936,936,936,936,936,936,936,936,936,936,936,936,936,936,936,936,936,936,936,936,936,936,936,936,936,936,936,936,936,936,936,936,936,936,936,936,936,936,936,936,935,935,935,935,935,936,936,936,936,936,936,936,936,936,936,936,936,935,935,935,935,936,936,935,935,936,936,936,936,936,936,936,936,936,936,936,936,936,936,936,936,936,936,936,936,936,936,936,936,936,936,936,936,936,936,936,936,936,935,935,935,935,935,935,936,936,936,936,936,936,936,936,936,935,935,936,935,935,935,935,935,935,935,935,936,936,936,936,936,935,935,935,935,935,936,936,936,936,936,936,936,936,936,936,936,936,936,936,936,936,936,935,935,936,935,935,935,935,935,935,936,936,936,936,936,936,936,936,936,936,936,936,936,936,935,935,935,935,935,935,935,935,935,935,935,934,934,934,933,933,933,933,934,934,934,934,933,933,934,933,933,933,933,933,933,934,933,933,933,933,933,933,934,933,933,933,933,933,933,933,932,932,933,933,2047,2047,2047,2047,2047,2047,2047,2047
938,938,938,938,938,938,938,938,938,938,938,938,938,938,938,938,938,938,937,938,937,938,938,938,938,938,938,939,939,938,938,938,938,938,938,938,938,939,939,939,939,939,939,939,938,938,938,938,938,938,938,938,938,938,938,938,938,938,938,938,938,939,939,939,939,939,939,939,938,938,938,938,937,938,938,938,938,938,938,938,939,938,938,938,938,938,939,938,938,939,939,939,940,940,939,939,939,939,939,939,939,939,939,939,939,939,939,939,939,939,939,939,939,939,939,939,938,939,939,939,939,939,940,940,940,940,940,940,940,939,940,939,939,939,939,940,939,939,939,939,940,939,940,939,940,940,939,939,939,939,939,939,939,940,940,940,940,940,940,940,940,939,939,939,939,939,939,939,940,940,940,940,939,939,939,939,939,939,939,939,939,939,939,940,940,940,939,939,939,939,939,939,938,939,939,939,939,939,939,939,939,938,939,939,939,939,939,939,939,938,938,938,938,939,938,939,939,939,939,939,938,938,938,938,938,938,938,938,939,939,939,938,938,938,938,938,938,938,938,938,938,938,938,938,938,938,938,938,938,938,938,938,938,938,938,938,938,938,938,938,938,938,938,938,938,938,937,937,938,938,938,937,938,938,938,938,938,938,938,938,938,938,938,938,938,938,938,938,938,938,938,938,938,938,938,938,938,938,938,938,938,938,938,938,938,938,938,938,938,938,938,938,938,938,938,938,938,938,938,938,937,937,937,937,937,937,937,936,936,936,936,936,936,936,937,937,937,937,937,937,937,937,937,937,937,937,937,937,937,937,937,936,936,936,936,936,936,936,936,937,937,937,937,937,937,937,937,937,937,937,937,937,937,936,936,936,936,936,936,936,936,936,936,936,936,936,936,936,936,936,936,936,936,936,936,936,936,936,936,936,936,936,936,936,936,936,936,936,936,936,936,936,936,936,936,936,936,936,936,936,936,936,936,936,936,936,937,937,936,936,937,936,936,936,936,936,936,936,936,936,936,936,936,936,936,936,936,936,935,935,936,936,936,936,936,936,936,936,936,936,936,936,936,936,936,936,936,936,936,936,936,936,936,936,936,936,936,936,936,936,936,936,936,936,936,936,936,936,936,936,936,936,936,936,936,936,936,936,936,936,936,936,936,936,936,936,935,935,935,935,935,936,936,936,936,936,936,936,936,936,936,936,936,936,935,935,935,935,935,935,936,936,936,936,936,936,936,936,935,935,935,936,936,936,936,937,937,937,936,936,936,936,936,936,936,936,936,936,936,936,936,936,936,936,936,936,936,936,936,936,936,936,936,936,936,936,936,936,936,936,936,936,936,936,936,936,936,936,935,935,935,935,935,935,934,934,934,934,934,934,934,935,935,934,934,934,934,934,934,934,934,934,934,934,934,933,933,933,933,933,933,933,933,933,933,933,933,933,933,933,933,934,2047,2047,2047,2047,2047,2047,2047,2047
938,938,938,939,939,938,938,939,939,939,938,938,938,938,938,938,938,938,938,938,937,938,938,938,938,939,939,939,939,939,938,938,938,938,938,938,938,939,939,939,939,939,939,939,939,938,938,938,938,939,938,938,938,938,938,938,938,938,938,938,938,940,940,940,940,940,940,940,939,939,938,938,938,938,938,939,939,939,939,939,939,938,939,938,938,938,939,939,939,939,940,940,940,940,940,940,939,939,939,939,939,940,939,940,940,940,939,939,939,939,939,939,939,939,940,939,939,939,939,939,940,940,940,940,940,940,940,940,940,940,940,940,940,940,940,940,940,940,940,940,940,940,940,939,940,940,940,940,939,940,939,940,940,940,940,940,940,940,940,940,940,939,939,940,940,940,939,940,940,940,940,940,940,940,940,940,940,940,940,940,940,940,940,940,940,940,939,939,940,939,939,940,939,939,940,940,939,940,940,939,939,939,939,939,940,939,939,939,939,939,939,939,939,939,939,939,939,939,939,939,938,938,938,938,938,938,939,939,939,939,939,939,938,938,938,938,938,938,939,939,939,939,938,938,938,938,938,938,938,938,938,938,938,938,938,938,938,938,938,938,938,938,938,938,938,938,938,937,938,938,938,937,938,938,938,938,938,938,938,938,938,938,938,938,938,938,938,938,938,938,938,938,938,938,938,938,938,938,938,938,939,939,938,938,938,938,938,938,938,938,938,938,938,938,938,938,938,938,938,938,938,938,937,938,938,938,938,936,937,937,937,937,936,937,937,937,937,937,937,937,937,937,937,937,937,937,937,937,937,937,937,937,937,937,937,937,937,937,937,937,937,937,937,937,937,937,937,937,937,937,937,937,937,936,937,937,937,937,936,936,936,937,936,936,936,936,936,936,936,936,936,936,936,936,936,936,936,937,937,937,936,936,937,937,936,936,936,936,936,936,937,937,936,936,937,937,937,937,937,936,937,937,936,937,937,937,937,937,937,937,937,937,936,936,936,936,936,936,936,936,936,936,936,936,936,936,936,936,936,936,936,936,936,936,936,936,936,936,936,936,936,936,936,936,936,936,936,936,936,936,936,936,936,936,936,936,936,936,936,936,936,936,936,936,936,936,936,936,936,936,936,936,936,936,936,936,936,936,936,936,936,936,936,936,936,936,936,936,936,935,936,936,936,936,936,937,937,937,937,936,937,937,937,936,936,936,935,936,936,936,936,936,936,936,936,936,936,936,936,936,936,936,936,936,936,937,937,937,937,936,936,936,936,936,936,936,936,936,936,936,936,937,936,936,936,936,936,936,936,936,936,936,936,936,936,936,936,936,936,936,936,936,936,936,936,936,936,936,936,936,936,936,936,935,935,935,935,935,935,934,935,935,936,935,935,934,935,935,934,935,935,935,934,935,934,934,934,934,934,933,934,933,933,934,933,934,934,933,933,933,934,934,2047,2047,2047,2047,2047,2047,2047,2047
938,938,939,939,939,939,939,939,940,939,939,938,939,939,939,938,938,938,938,938,938,938,938,938,939,939,939,939,939,939,939,939,939,938,938,939,939,939,940,940,939,940,939,939,939,938,938,938,938,939,938,939,939,938,939,939,939,939,939,939,939,940,940,940,940,940,940,940,939,939,939,938,938,939,939,939,939,939,940,940,940,939,939,939,939,939,940,939,940,940,940,940,940,940,940,940,940,939,940,940,939,940,940,940,940,940,940,940,940,940,940,940,940,940,940,940,939,940,940,940,940,940,940,941,941,941,941,940,940,940,941,941,941,941,941,941,941,940,940,940,940,940,940,939,940,940,940,940,939,939,939,940,940,940,940,941,941,941,941,941,941,941,941,941,941,940,940,941,940,940,940,940,940,940,940,940,940,940,940,941,940,940,940,940,941,940,940,940,940,940,939,939,939,939,939,940,939,940,940,939,939,939,940,940,940,940,940,940,940,940,940,940,940,940,940,940,939,939,939,939,939,939,939,939,939,939,940,939,939,939,939,939,939,939,938,938,938,938,939,939,939,939,939,939,939,938,938,938,938,938,938,938,938,938,938,938,938,938,938,938,938,938,939,938,938,938,938,938,938,938,938,938,938,938,938,938,938,938,938,938,938,938,938,938,938,938,938,938,938,938,938,938,938,938,938,938,938,939,939,939,939,939,939,939,939,939,939,938,938,938,938,939,938,938,938,938,938,938,938,938,938,938,938,938,938,938,938,937,937,937,937,937,937,937,937,937,937,937,937,937,937,937,937,937,937,937,937,937,937,937,937,937,937,937,937,937,937,937,937,937,937,937,937,937,937,937,937,937,937,937,937,937,936,936,937,937,937,937,937,937,937,937,936,936,936,936,936,936,936,936,936,936,936,936,936,936,937,936,937,937,937,937,937,937,937,937,937,937,937,937,937,937,937,937,937,937,937,937,937,936,937,937,937,937,937,937,937,937,937,937,937,937,937,937,937,937,937,937,937,937,937,936,936,936,936,936,936,936,936,936,936,936,936,936,936,936,936,936,936,936,936,937,937,937,936,936,937,937,937,936,936,936,936,936,936,936,936,936,936,936,936,936,936,936,936,936,936,936,936,936,936,936,937,936,936,936,936,936,937,937,937,936,936,936,937,936,936,936,936,935,936,936,936,936,936,937,937,937,936,936,936,937,936,936,936,936,936,936,936,936,936,936,936,936,936,936,936,936,936,936,936,936,937,937,937,937,937,937,937,937,936,937,937,936,936,936,936,936,936,936,936,937,937,937,936,936,936,936,937,936,936,936,936,936,936,936,936,936,936,935,936,936,936,936,936,936,936,936,936,936,936,936,936,936,936,936,936,935,935,935,936,936,936,935,936,935,935,935,935,935,935,935,935,936,935,935,935,934,934,933,934,933,934,934,934,935,934,934,934,935,935,934,2047,2047,2047,2047,2047,2047,2047,2047
939,939,940,941,941,941,941,941,941,940,940,939,939,940,940,940,939,939,938,938,938,939,939,939,939,939,940,940,940,939,939,939,939,939,938,939,939,940,940,940,940,940,940,939,939,939,938,938,938,939,939,939,939,939,940,940,940,940,940,940,940,940,940,940,940,940,940,940,940,940,940,939,939,940,940,940,940,940,940,940,940,940,940,940,939,939,940,940,940,940,941,940,941,941,940,940,940,940,940,940,940,941,941,941,941,941,940,940,941,941,941,941,941,941,941,941,941,940,941,941,941,941,940,941,941,941,941,941,941,941,941,941,941,941,941,941,941,941,941,941,941,940,940,940,940,941,940,940,939,940,940,940,940,940,941,941,941,941,941,941,941,941,941,941,941,941,941,941,941,941,941,941,941,941,941,941,941,941,941,941,941,941,941,941,941,941,940,940,941,940,940,940,940,940,940,940,940,940,940,940,940,940,940,940,940,940,940,940,940,941,941,941,941,940,940,940,939,939,939,939,939,939,939,940,940,940,940,940,940,940,939,939,939,939,938,938,939,939,939,939,939,939,939,939,939,939,938,938,938,938,938,938,938,938,938,938,938,938,938,939,938,938,939,938,938,938,938,938,938,938,938,938,938,938,938,938,938,938,938,938,938,938,938,938,939,939,938,938,938,938,938,938,938,938,938,938,939,939,939,940,940,940,939,939,939,939,939,939,939,939,939,939,939,938,938,938,939,938,938,938,938,938,938,938,938,938,938,937,937,937,937,937,937,937,937,937,937,937,937,938,938,938,938,938,938,938,937,937,937,937,937,937,937,937,937,937,937,937,937,937,937,937,937,937,938,937,937,937,937,937,937,937,936,936,936,936,936,937,936,936,937,937,936,936,936,936,936,936,936,936,936,936,936,936,936,937,937,937,937,937,937,937,937,937,937,937,937,937,937,937,937,937,937,937,937,937,937,937,937,937,937,937,937,937,937,937,938,938,937,937,937,937,938,937,937,937,937,937,937,937,937,937,937,937,936,936,936,936,936,936,936,936,936,936,936,936,937,937,937,937,937,937,937,937,937,936,937,937,937,937,937,936,937,937,936,936,936,936,936,936,936,936,936,936,936,937,937,936,936,937,936,937,937,937,937,937,936,936,937,937,937,937,937,937,937,937,936,936,936,936,937,937,937,937,937,937,937,937,937,937,937,937,937,937,936,936,936,937,937,936,936,937,937,937,936,936,936,936,936,936,937,937,937,937,937,937,937,937,937,937,937,937,937,937,936,936,936,937,937,937,937,937,937,937,937,937,937,937,937,936,937,937,937,937,937,937,936,936,936,936,936,936,936,936,936,937,936,937,936,936,936,936,936,936,936,936,936,936,936,936,936,936,936,936,936,936,936,936,936,936,936,936,936,936,936,935,936,935,934,934,934,934,934,934,934,935,935,935,934,935,935,935,2047,2047,2047,2047,2047,2047,2047,2047
939,940,940,941,941,941,941,941,941,941,941,940,940,940,940,940,940,939,939,938,938,939,939,939,939,939,940,940,940,939,939,940,939,939,939,939,939,940,940,940,940,940,940,940,939,939,939,939,939,939,939,939,940,940,940,940,940,940,940,940,940,941,940,940,940,940,940,940,940,940,940,940,940,940,940,940,940,940,940,940,940,940,940,940,940,940,940,940,941,941,941,941,941,941,940,940,940,940,940,940,940,941,941,941,941,941,941,941,941,941,941,941,941,941,941,941,941,941,941,941,941,941,941,941,941,941,941,941,941,941,942,941,941,941,941,941,941,941,941,941,941,941,941,940,941,941,940,940,940,940,940,941,941,941,941,941,941,941,941,941,941,941,941,941,941,941,941,941,941,941,941,941,941,941,941,941,941,941,941,941,941,941,941,941,941,941,941,941,941,941,941,941,941,941,941,941,941,941,941,940,940,940,940,940,940,940,940,940,941,941,941,941,941,941,940,940,940,940,939,939,939,939,940,940,940,941,941,940,939,940,939,939,939,939,939,939,939,939,940,939,940,940,939,939,939,939,939,938,939,938,939,938,938,938,938,939,939,939,939,939,939,939,940,939,939,939,938,938,938,938,938,938,938,938,938,938,938,938,939,939,939,939,939,939,939,939,939,938,939,938,938,938,938,938,939,939,939,940,940,940,940,940,940,940,940,940,940,940,940,940,939,939,939,939,939,939,939,939,939,939,939,939,938,939,938,938,938,937,937,937,937,937,937,937,937,937,937,937,938,938,938,939,939,938,938,938,938,937,937,937,937,937,937,937,937,937,937,937,937,938,938,938,938,938,938,938,938,937,937,937,937,937,936,936,936,936,936,936,936,936,936,937,936,936,936,936,936,936,936,936,937,936,936,937,937,937,937,937,937,937,937,937,937,937,937,937,937,937,937,937,937,937,937,937,937,937,937,937,937,937,937,937,937,937,937,938,938,938,938,938,938,938,938,938,938,937,937,938,938,937,937,937,937,937,937,937,936,936,936,936,936,937,937,937,937,937,937,937,937,937,937,937,937,937,937,937,937,937,937,937,937,937,937,937,936,936,936,936,936,936,936,936,937,937,937,937,937,937,937,937,937,937,937,937,937,937,937,937,937,937,937,937,937,937,937,937,937,937,937,936,937,937,937,937,937,937,937,937,937,937,937,937,937,937,937,936,937,937,937,937,937,937,937,937,937,937,937,937,937,936,937,937,937,937,937,937,937,937,937,937,937,937,937,937,937,937,937,937,937,937,937,937,937,937,937,937,937,937,937,937,937,937,937,937,937,937,937,937,936,936,936,936,936,936,936,937,937,937,937,937,936,937,937,937,936,936,936,936,936,936,936,936,936,936,936,936,936,936,936,936,936,936,936,936,936,936,936,936,935,935,934,934,934,934,934,935,935,935,935,936,936,935,2047,2047,2047,2047,2047,2047,2047,2047
940,940,941,941,941,941,941,941,941,941,941,941,941,941,941,941,940,940,940,939,939,939,939,939,939,940,940,940,940,939,939,940,940,940,939,939,940,940,940,940,940,940,940,940,940,940,940,940,940,940,939,940,940,940,940,940,940,940,940,941,941,941,941,941,941,940,940,940,940,940,940,940,940,941,941,941,941,941,941,940,941,940,940,940,940,940,940,940,941,941,941,941,941,941,941,941,941,940,941,941,941,941,941,941,941,941,941,941,941,941,941,941,941,941,941,941,941,941,941,941,941,941,941,941,941,941,941,941,941,941,942,942,942,942,942,942,942,941,941,941,941,941,941,941,941,941,940,941,941,941,941,941,941,941,941,941,941,941,942,942,942,942,942,941,941,942,941,941,941,941,941,941,941,941,941,941,941,941,942,942,942,942,942,942,941,941,941,941,941,941,941,941,941,941,941,941,941,941,941,941,941,940,940,940,940,941,941,941,941,941,941,941,941,941,941,941,941,941,940,940,940,940,941,941,941,941,941,941,940,940,940,940,940,939,939,939,940,940,940,940,940,940,939,939,939,939,939,939,939,939,939,939,939,939,938,939,939,939,939,939,939,939,939,939,939,939,939,939,939,938,938,938,939,939,939,939,939,939,939,940,939,939,939,939,939,939,939,939,939,939,939,939,939,939,940,940,940,940,940,940,940,940,940,940,940,940,940,940,940,940,940,939,939,939,939,939,939,939,939,939,939,939,939,939,939,939,939,938,938,938,937,937,937,937,937,937,937,937,938,938,938,939,939,939,939,939,938,938,938,938,938,938,938,938,938,938,938,938,938,938,939,939,939,939,939,939,939,938,938,937,937,937,936,936,936,936,936,936,936,936,936,936,936,936,936,936,936,936,936,937,937,937,936,937,937,937,937,937,937,937,937,937,937,937,937,938,937,937,937,937,938,937,937,937,937,937,937,937,937,937,938,938,938,938,938,938,938,938,938,938,938,938,938,938,938,938,938,938,938,938,937,937,937,937,937,937,937,937,937,937,937,937,937,937,937,937,937,937,937,937,937,937,937,937,937,937,937,937,937,937,937,937,937,937,937,937,936,936,936,937,937,937,937,937,937,937,937,937,937,937,937,937,937,937,937,937,937,937,937,937,937,937,937,937,937,937,937,937,937,937,937,938,937,937,938,938,938,937,937,937,937,937,937,937,937,937,937,937,937,937,937,937,937,937,937,937,937,937,937,937,937,937,937,937,937,937,937,937,937,937,937,937,937,937,937,937,937,937,937,937,937,937,938,938,938,938,938,938,938,937,938,938,937,937,937,937,937,937,936,936,936,936,936,936,936,937,937,937,937,937,937,937,937,937,937,937,937,936,937,936,936,936,936,936,937,936,936,936,936,937,937,937,937,937,937,937,937,936,936,936,935,935,935,935,935,935,935,935,935,936,936,936,2047,2047,2047,2047,2047,2047,2047,2047
940,940,941,941,941,941,941,941,941,941,941,941,941,941,941,941,941,941,940,939,939,940,940,940,940,940,940,940,940,940,939,940,940,940,940,940,940,940,940,940,940,940,940,940,940,940,940,940,940,939,939,940,940,940,940,940,940,940,940,941,941,941,941,941,941,941,940,940,940,940,940,940,941,941,941,941,941,941,941,941,941,941,941,941,941,940,941,941,941,941,941,941,941,941,941,941,941,941,941,941,941,942,941,942,942,941,941,941,941,941,941,941,941,942,942,942,942,941,942,941,942,941,941,941,941,941,941,941,941,942,942,942,942,942,942,942,942,942,942,942,941,941,941,941,941,941,941,941,941,941,941,942,941,942,942,942,942,942,942,942,942,942,942,942,942,942,941,941,942,942,941,941,941,941,942,941,942,942,942,942,942,942,942,942,942,941,941,941,942,941,941,941,941,941,941,941,941,941,941,941,941,941,941,941,941,941,941,941,941,941,941,941,941,941,941,941,941,941,941,941,941,941,941,941,941,941,941,941,941,941,941,940,940,940,940,940,940,940,940,940,940,940,940,940,940,940,940,939,939,939,940,939,939,939,939,939,940,939,939,940,939,940,940,940,939,940,939,939,939,939,939,939,939,939,939,939,939,939,939,940,939,939,939,940,940,940,939,939,939,939,939,939,939,939,940,940,940,941,941,941,941,941,940,940,940,940,940,940,940,940,940,940,939,939,939,939,940,940,940,940,940,940,940,940,939,939,939,938,938,938,938,938,938,938,938,938,938,938,938,939,939,939,939,939,939,939,939,939,939,938,938,939,939,939,939,939,939,939,939,939,939,939,939,939,939,939,939,938,938,937,937,937,936,936,936,936,936,936,936,936,936,936,936,936,936,936,936,936,936,936,936,936,936,936,936,936,936,936,936,937,937,937,937,937,937,937,937,937,937,938,938,938,937,938,938,938,938,938,937,937,938,938,938,938,938,938,938,938,938,938,939,939,939,939,939,939,939,939,938,938,938,937,938,938,937,937,937,937,937,937,937,937,937,937,938,938,938,938,938,938,938,938,938,937,937,937,937,937,937,937,937,937,937,937,937,937,937,936,937,937,937,937,937,937,937,937,937,937,937,937,937,937,937,937,937,937,937,937,937,937,937,938,938,937,938,938,938,937,937,937,938,938,938,938,938,938,938,938,937,937,937,937,937,937,937,937,938,938,938,938,938,937,937,938,937,937,937,937,937,937,938,937,938,938,938,937,937,937,937,937,937,937,937,937,937,937,937,937,937,937,938,938,938,938,938,938,938,938,938,938,938,938,938,938,938,938,937,937,937,937,937,937,937,937,937,937,937,937,937,937,937,937,937,937,937,937,937,937,937,937,936,936,937,937,937,937,936,936,936,937,937,937,937,937,937,937,937,937,936,936,936,936,935,935,935,935,935,936,935,936,936,936,2047,2047,2047,2047,2047,2047,2047,2047
940,941,941,941,941,941,941,941,941,941,941,941,941,942,941,941,941,941,940,940,940,940,940,940,940,940,941,941,941,940,940,940,941,940,940,940,940,940,940,940,940,940,940,941,940,941,940,941,940,940,940,940,940,940,941,941,941,941,941,941,941,941,941,941,941,941,941,941,941,941,941,941,941,941,941,941,941,941,941,941,941,941,941,941,941,941,941,941,941,941,941,941,942,941,941,941,941,941,941,941,941,942,942,942,942,942,941,942,942,942,942,941,941,942,942,942,942,942,942,942,942,942,941,942,942,942,942,942,942,942,942,942,942,942,942,942,942,942,942,942,942,942,942,941,941,941,941,942,941,942,942,942,942,942,942,942,942,942,942,942,942,942,942,942,942,942,942,942,942,942,942,942,942,942,942,942,942,942,942,942,942,942,942,942,942,942,942,942,942,942,941,941,941,942,941,941,941,941,941,941,941,941,941,941,941,941,941,941,941,941,942,941,941,941,941,941,941,941,941,941,941,941,941,941,942,942,942,941,941,941,941,941,941,940,940,941,941,941,941,941,941,941,940,940,940,940,940,940,940,940,940,940,940,940,940,940,940,940,940,940,940,940,940,940,940,940,940,940,940,940,940,940,940,940,940,940,940,940,940,940,939,939,939,940,940,940,940,939,940,940,940,940,940,940,940,941,941,941,941,941,941,941,941,941,941,941,941,941,941,941,940,940,940,940,940,940,940,940,940,940,940,940,940,940,940,940,940,939,939,939,939,938,938,938,938,939,938,938,939,939,939,940,939,939,939,939,939,939,939,939,939,939,939,939,939,939,939,939,939,939,939,939,939,939,939,939,939,938,938,938,938,938,937,936,936,936,936,936,936,936,936,936,935,935,935,935,935,935,936,936,936,936,936,936,936,936,936,936,936,936,936,937,937,937,938,938,938,938,938,938,938,938,938,938,938,938,938,938,938,938,939,939,939,939,939,939,939,939,938,939,939,939,939,939,939,939,939,939,939,938,938,938,938,938,937,937,937,937,937,938,938,937,938,938,938,938,939,938,939,938,939,938,938,938,937,937,937,937,937,937,937,937,937,937,937,937,937,937,937,937,937,937,937,937,937,937,937,937,937,937,937,938,938,938,937,938,937,937,937,938,938,938,938,938,939,938,938,938,938,938,938,939,938,939,938,939,938,938,938,937,938,938,938,938,938,937,938,938,938,938,938,938,937,938,937,938,937,937,938,938,938,938,938,938,938,938,938,938,938,937,937,937,937,937,937,937,937,937,937,938,938,938,938,938,938,939,939,938,938,939,939,939,939,939,939,938,938,938,937,937,937,937,937,937,937,937,937,937,937,937,937,937,937,937,937,937,937,937,937,937,937,937,937,937,937,937,937,937,936,937,937,937,937,937,938,938,938,937,937,937,936,936,936,936,936,936,936,936,936,936,936,936,2047,2047,2047,2047,2047,2047,2047,2047
941,941,941,941,941,941,941,941,942,941,941,942,941,942,941,941,941,941,941,941,940,941,941,941,940,941,941,941,941,940,940,940,941,941,941,940,940,940,940,940,941,941,941,941,941,941,941,941,941,941,941,941,941,941,941,941,941,941,941,941,942,942,942,942,942,941,941,941,941,941,941,941,941,941,941,941,942,942,942,941,942,942,942,941,941,941,941,941,941,941,941,941,941,941,941,941,942,941,942,942,942,942,942,942,942,941,941,941,941,941,941,941,942,942,942,942,942,942,942,942,942,942,942,942,942,942,942,942,942,942,942,942,942,942,942,942,942,942,942,942,942,942,942,942,942,942,942,942,942,942,942,942,942,942,942,942,942,942,942,942,942,942,942,942,942,942,942,942,942,942,942,942,942,942,942,942,942,942,942,942,942,942,942,942,942,942,942,942,942,942,942,942,942,942,942,942,942,942,942,942,941,941,941,941,941,942,942,942,942,942,942,942,941,941,941,941,941,941,941,941,942,941,942,942,942,942,942,942,941,941,941,941,941,941,941,941,941,941,941,941,941,941,941,940,940,940,940,940,940,940,940,940,940,940,940,940,940,940,941,941,941,941,941,941,941,941,941,941,941,941,941,941,941,941,941,940,940,941,941,941,940,940,940,940,940,941,940,940,940,940,940,940,941,940,941,941,941,941,941,941,941,941,941,941,941,941,941,941,941,941,941,940,940,940,940,940,940,941,941,940,940,940,940,940,940,940,940,939,939,940,939,939,939,939,939,939,939,939,939,939,939,940,940,940,940,940,940,939,939,939,939,939,939,939,939,940,940,940,940,940,940,940,940,940,940,940,940,939,939,939,939,939,938,937,937,936,936,936,936,936,936,936,935,935,935,935,935,935,936,936,936,936,936,936,935,935,935,936,936,936,936,936,937,937,938,939,938,938,938,938,939,938,938,938,939,939,939,939,939,939,939,939,939,939,939,939,939,938,938,938,939,939,939,939,939,939,939,939,939,939,938,938,938,938,938,937,937,938,938,938,938,938,938,938,938,938,938,938,938,939,939,939,938,938,938,937,938,937,937,937,937,937,937,937,937,937,937,937,938,938,938,938,938,938,938,938,938,938,937,938,938,938,938,938,938,938,938,938,938,938,938,938,938,938,938,938,938,938,938,938,939,939,939,939,939,939,939,939,939,938,939,939,939,939,939,938,939,939,938,938,938,938,938,939,938,939,938,938,938,938,939,938,938,938,938,938,938,938,938,938,937,938,937,938,937,937,937,937,938,938,939,939,938,938,938,939,939,938,938,938,938,938,938,938,938,938,938,939,938,938,938,937,937,938,937,938,938,938,938,938,938,937,938,937,937,937,937,937,937,937,937,937,937,937,937,937,937,937,937,937,938,938,938,939,938,939,938,938,938,937,937,937,937,936,936,936,936,937,936,937,937,937,2047,2047,2047,2047,2047,2047,2047,2047
941,941,941,941,941,941,941,941,941,942,942,942,942,942,942,941,941,941,941,941,941,941,941,941,941,941,941,941,941,941,941,941,941,941,941,940,941,941,941,940,941,941,941,941,940,941,941,941,941,941,941,941,941,941,942,941,941,941,941,941,942,942,941,942,942,941,941,941,941,941,941,941,941,941,941,942,942,942,942,942,942,942,942,942,941,941,941,941,941,942,941,941,941,941,942,942,942,942,942,942,942,942,942,942,942,942,942,942,942,942,942,942,942,942,942,942,942,942,943,943,943,942,942,943,942,942,942,942,943,943,943,943,943,943,943,943,943,943,943,943,943,943,942,943,942,943,942,942,942,942,942,942,942,942,942,942,942,942,943,943,943,942,942,942,942,942,942,942,942,942,942,942,942,942,942,942,942,942,942,942,942,943,942,942,942,942,942,942,942,942,942,942,942,942,942,942,942,942,942,942,942,942,942,942,942,942,942,942,942,942,942,942,941,941,941,941,941,941,941,941,942,942,942,942,942,942,942,942,942,942,941,941,941,941,941,941,941,941,941,941,941,941,941,941,941,941,941,941,941,941,941,941,941,941,941,941,941,941,941,941,941,941,941,941,941,941,941,941,941,941,941,941,941,941,941,940,940,941,941,941,940,940,941,941,941,941,941,941,941,941,941,941,941,941,941,941,941,941,941,941,941,941,941,941,941,941,941,941,941,941,941,941,941,941,941,941,941,941,941,941,941,941,941,941,941,941,941,939,940,940,940,940,940,940,940,940,940,940,940,940,940,940,940,940,940,940,940,939,939,939,939,939,940,940,940,940,940,940,940,940,940,940,940,940,940,940,940,940,940,939,939,939,939,938,938,937,937,937,936,936,936,935,934,935,935,935,935,935,935,936,936,936,936,935,935,935,935,935,935,935,936,936,937,937,938,939,939,939,939,939,939,939,939,939,939,939,939,939,939,940,940,940,939,940,939,939,939,939,939,939,939,939,939,940,939,939,939,939,939,939,939,938,938,939,938,938,938,938,938,938,938,938,938,938,939,938,939,939,939,939,939,939,939,939,938,938,938,938,937,937,938,938,938,938,937,937,938,938,938,938,938,938,938,938,938,938,938,938,938,938,938,938,938,939,939,939,939,939,938,939,939,939,938,938,939,939,939,938,938,939,939,940,940,940,939,940,940,940,939,939,939,939,939,939,939,938,939,939,939,939,939,938,938,939,939,939,938,938,939,939,939,939,939,939,939,938,938,938,938,938,937,938,938,938,937,938,938,938,938,939,939,939,939,939,939,940,940,939,939,938,939,939,939,939,939,939,939,939,939,939,939,938,938,938,937,938,938,938,938,938,938,938,938,938,938,937,937,937,937,937,937,937,937,938,938,937,937,937,937,938,938,938,938,939,938,938,938,938,938,938,938,937,937,937,937,937,937,937,937,937,937,937,2047,2047,2047,2047,2047,2047,2047,2047
941,941,941,941,941,941,941,941,941,941,942,942,942,942,942,942,941,942,941,941,941,941,941,941,941,941,941,941,941,941,941,941,941,941,941,941,941,941,941,941,941,941,941,941,941,941,941,942,942,942,942,942,942,942,942,942,941,941,941,942,942,942,942,942,942,942,942,941,941,941,941,941,941,941,942,942,942,942,942,942,942,942,942,942,942,942,942,942,942,942,942,942,942,942,942,942,942,942,942,942,942,942,942,942,942,942,942,942,942,942,942,942,942,942,942,942,942,942,943,943,943,943,942,943,943,943,942,943,943,943,943,943,943,943,943,943,943,943,943,943,943,943,943,943,943,943,943,943,943,943,943,943,943,943,943,943,942,942,943,943,943,943,943,942,943,943,942,943,943,943,942,943,942,942,942,942,942,943,943,942,943,943,943,943,943,943,943,943,943,942,942,943,942,943,943,943,943,942,942,942,942,942,942,942,942,942,942,942,942,942,942,942,941,942,941,941,942,942,942,942,942,942,942,942,942,942,942,942,942,942,941,941,941,941,941,941,941,941,941,941,941,941,941,941,941,941,941,941,941,941,941,941,941,941,941,941,941,941,941,941,941,941,941,941,941,941,941,941,941,941,941,941,941,941,941,941,941,941,941,941,941,941,941,941,941,941,941,941,941,941,941,941,941,941,941,941,941,941,941,941,941,942,941,941,941,941,941,941,941,941,941,941,941,941,941,941,941,941,941,941,941,941,941,941,941,941,941,940,940,940,940,940,940,940,940,940,940,940,940,940,940,940,940,940,940,940,940,940,940,939,940,940,940,940,940,940,940,940,940,940,941,941,940,940,940,940,940,940,940,940,940,940,940,939,939,938,937,937,937,936,936,935,935,935,935,935,935,935,935,935,935,935,935,935,935,934,934,934,935,935,935,936,937,938,938,939,939,939,939,939,939,939,939,939,939,939,940,940,940,940,940,940,940,940,940,940,940,939,939,939,939,939,940,940,940,939,939,940,940,939,939,939,939,939,939,938,938,939,938,939,939,939,939,939,939,939,939,939,939,939,940,940,940,939,939,939,939,938,938,938,938,938,938,938,937,938,938,939,939,938,939,939,939,939,939,939,938,939,938,939,939,939,939,939,939,939,939,939,939,939,939,939,939,939,939,939,939,939,939,939,939,940,940,940,940,940,940,940,939,939,939,939,940,939,939,939,940,940,939,939,939,939,938,939,939,939,938,939,939,939,940,939,940,939,939,939,939,939,938,938,938,938,938,939,938,938,938,938,939,939,939,939,939,939,940,940,940,939,939,939,939,939,939,939,939,939,940,940,940,939,939,938,938,938,937,938,938,938,938,939,939,939,939,938,938,938,937,938,937,938,938,938,938,938,939,938,938,938,938,938,938,938,938,939,939,939,939,938,938,938,938,938,938,937,937,937,937,937,937,937,937,937,2047,2047,2047,2047,2047,2047,2047,2047
942,942,942,942,941,942,941,941,941,941,942,941,942,942,941,942,941,942,942,942,942,942,942,942,942,941,941,942,941,941,942,941,941,942,941,941,941,941,941,941,941,941,941,941,942,942,942,942,942,943,942,942,942,942,942,941,942,941,942,942,942,942,941,941,943,942,942,942,942,942,941,941,941,941,942,942,942,942,943,942,943,943,943,942,942,942,942,942,942,942,942,942,942,942,943,943,943,942,942,942,942,943,943,943,943,943,943,943,943,943,942,942,942,943,943,943,942,943,943,944,943,943,943,943,943,943,943,943,943,943,944,943,943,943,943,943,944,943,943,943,944,944,943,943,943,944,944,944,944,943,943,943,943,943,943,943,943,943,943,943,943,943,943,943,943,943,943,943,943,943,943,943,943,942,942,942,943,943,943,943,943,944,944,944,943,944,944,944,943,943,943,943,943,943,943,943,943,943,943,942,942,942,942,942,942,942,942,942,942,942,942,942,942,942,942,942,942,942,942,942,942,942,942,942,942,942,942,942,942,942,942,942,942,941,942,942,942,942,942,942,942,942,942,942,942,942,942,942,941,941,941,941,941,942,941,942,942,942,942,942,941,941,941,941,942,942,941,941,941,941,941,941,941,941,941,941,941,941,941,941,941,941,941,941,941,941,941,941,941,941,941,941,941,941,941,941,941,942,942,942,941,942,942,942,941,941,941,941,941,941,941,941,941,941,941,941,941,941,941,941,941,941,941,941,941,941,941,940,940,940,940,940,940,940,940,940,941,940,940,941,941,941,941,940,940,940,940,940,940,940,940,940,940,940,940,940,940,941,941,941,941,941,940,940,940,940,940,940,940,940,940,940,940,940,939,939,938,937,937,936,936,935,935,934,934,934,934,934,935,935,935,935,935,935,934,934,934,934,934,934,935,936,937,938,938,939,939,940,940,940,940,939,939,940,940,940,940,940,940,940,940,940,940,940,940,940,940,940,940,940,940,940,940,940,940,939,939,940,939,939,939,939,939,939,939,939,939,939,939,939,939,939,939,939,939,939,940,940,940,940,940,940,940,940,940,940,939,939,938,938,938,939,938,938,938,939,939,939,939,939,939,939,939,939,939,939,939,939,939,939,939,939,940,940,940,940,940,940,940,940,940,940,940,940,940,940,940,939,939,939,939,940,940,940,940,940,940,940,940,939,939,940,940,940,940,939,940,940,940,940,939,940,939,940,939,939,939,939,940,939,940,940,940,939,940,939,939,939,939,939,938,939,939,939,939,939,939,939,939,939,939,939,939,940,940,940,940,940,940,940,940,940,940,940,939,939,940,940,940,939,939,939,939,939,938,938,938,939,939,939,939,939,939,939,938,938,937,938,938,938,938,938,938,939,939,938,938,938,938,938,938,938,938,939,939,939,938,938,939,938,939,938,937,937,937,938,937,937,937,937,937,937,2047,2047,2047,2047,2047,2047,2047,2047
942,942,942,942,942,942,942,942,942,942,942,942,942,942,942,942,942,943,942,942,943,942,942,942,942,942,942,942,941,942,942,942,942,942,942,942,942,941,941,941,942,941,941,942,942,942,942,943,942,943,942,942,942,942,942,942,942,942,942,942,943,943,942,944,943,943,942,942,942,942,942,942,941,942,942,943,943,943,943,943,943,943,943,942,942,942,942,942,942,943,942,942,943,943,943,943,943,943,943,943,943,943,943,943,943,943,943,943,943,943,943,943,943,944,943,943,943,944,943,944,944,943,943,944,944,943,944,944,944,944,944,944,944,944,944,944,944,943,944,943,944,944,944,944,944,944,944,944,944,944,944,944,944,943,943,943,943,943,943,943,943,943,943,943,943,943,943,944,943,943,943,943,943,943,943,943,943,943,943,943,944,944,944,944,944,944,944,944,943,943,943,943,943,944,944,944,943,943,943,943,943,942,942,942,942,942,942,942,942,942,942,942,942,942,942,942,942,942,942,942,943,943,943,942,942,943,942,942,942,942,942,942,942,942,942,942,942,942,942,942,942,942,942,942,942,942,942,942,941,941,941,942,942,942,942,942,942,942,942,942,942,942,941,942,942,942,942,942,942,942,942,941,941,941,941,941,941,941,941,941,941,941,941,942,941,941,941,941,942,942,942,942,942,941,942,942,942,942,942,942,942,942,942,942,942,941,941,941,941,941,941,941,941,941,941,941,941,941,941,941,941,941,941,941,941,941,941,940,940,941,941,941,941,941,941,941,941,941,941,941,941,941,941,940,940,940,940,940,940,940,940,940,940,940,941,941,941,941,941,941,941,941,941,941,941,941,941,941,941,941,940,940,940,940,940,939,939,938,937,936,936,935,935,934,934,934,934,934,934,934,934,935,934,934,934,934,934,934,934,934,935,936,937,938,939,939,940,940,940,940,940,940,940,940,940,940,940,940,940,940,940,940,940,940,940,940,940,940,940,940,940,940,940,940,940,940,940,940,940,939,940,939,939,940,939,939,939,940,939,939,939,939,939,939,939,939,940,940,940,940,940,940,940,940,940,940,940,940,939,939,939,939,939,939,939,939,940,940,940,940,940,939,939,940,940,939,939,939,939,940,940,940,940,940,940,940,940,940,940,940,940,940,940,940,940,940,940,940,939,940,940,940,940,940,940,940,940,940,940,940,940,940,940,940,940,940,940,940,940,940,940,940,940,940,940,940,940,940,940,940,940,940,940,940,940,940,940,940,940,939,939,939,940,940,939,939,939,939,940,940,940,940,939,940,940,940,940,940,940,940,940,940,940,940,940,940,940,940,940,940,939,939,939,939,938,939,939,939,939,940,940,940,940,939,939,938,938,938,938,938,938,939,939,939,940,939,939,939,939,939,939,938,938,939,939,939,939,939,939,939,939,938,938,938,938,938,937,937,937,937,937,937,2047,2047,2047,2047,2047,2047,2047,2047
943,942,942,942,942,942,942,942,941,942,942,942,942,942,942,942,942,943,942,943,943,943,943,943,943,942,942,942,942,942,942,942,942,942,942,942,942,942,942,942,942,942,942,942,942,943,943,943,943,944,943,943,943,942,942,942,942,942,942,942,943,943,943,944,943,943,943,942,942,942,942,942,942,942,942,943,943,943,943,943,944,944,943,943,943,943,943,943,943,943,943,943,944,943,943,944,943,943,943,943,943,943,943,943,943,943,944,944,944,943,943,943,943,944,943,944,943,944,944,944,944,944,944,944,944,944,944,944,944,944,944,944,944,943,944,944,944,943,944,943,944,944,944,944,944,945,944,944,944,944,944,944,944,944,943,944,943,943,943,943,943,943,943,943,944,944,944,944,944,944,944,944,943,943,943,943,943,943,944,944,944,944,944,944,945,945,944,944,944,944,944,944,943,944,944,944,944,944,943,943,943,943,943,943,943,943,943,942,942,942,942,942,942,942,942,942,943,943,943,943,943,943,943,943,943,943,943,943,942,942,942,942,942,942,942,942,943,942,942,942,942,942,942,942,942,942,942,942,942,942,942,942,942,942,942,942,942,942,942,942,942,942,942,942,942,942,942,942,942,942,942,942,942,941,941,941,941,942,942,941,941,941,942,942,942,942,942,942,942,942,942,942,942,941,942,942,942,942,942,942,942,942,942,942,942,942,942,942,942,942,941,942,942,942,942,942,942,941,942,942,941,941,942,942,942,942,942,941,941,941,941,941,941,941,941,941,941,941,941,941,941,941,941,940,940,940,940,940,941,940,941,941,941,941,941,941,941,941,941,941,941,941,941,941,941,941,941,941,941,941,941,941,940,940,940,940,939,939,938,937,936,936,935,934,934,934,933,934,934,934,934,934,934,934,934,934,934,933,934,934,935,936,937,939,939,940,940,941,941,940,940,940,940,940,940,940,940,940,940,941,941,940,940,940,940,940,940,940,940,940,940,940,940,940,940,940,940,940,940,940,940,940,940,940,940,940,940,940,940,940,940,940,940,940,940,940,940,940,940,940,940,940,940,940,940,940,940,940,940,940,940,940,939,940,940,939,940,940,940,940,940,940,940,940,940,940,940,940,940,940,940,940,940,940,940,940,940,940,940,940,940,940,940,940,940,940,940,940,939,940,940,940,940,940,940,940,940,940,941,940,941,940,941,940,941,940,940,940,940,940,940,940,940,940,940,940,940,940,940,940,940,940,940,940,940,940,940,940,940,940,940,940,940,940,940,940,940,940,940,940,940,940,940,940,940,941,941,940,940,940,940,940,940,940,940,940,940,940,940,940,940,940,939,940,939,939,939,940,940,940,940,940,940,940,939,939,939,939,938,939,939,939,940,940,940,940,940,940,939,939,939,939,938,939,939,939,939,939,939,939,939,938,938,938,938,938,937,937,937,937,938,938,2047,2047,2047,2047,2047,2047,2047,2047
943,942,942,942,942,942,942,942,942,942,942,942,942,942,942,942,942,943,943,943,943,943,943,943,943,942,942,942,942,943,943,942,942,942,942,942,942,942,942,942,942,942,942,942,943,943,944,944,944,944,944,944,943,943,943,942,942,942,943,942,943,943,943,944,944,943,943,943,943,943,943,942,942,942,943,943,943,943,944,944,944,944,944,943,943,943,943,943,943,943,943,943,944,944,944,944,944,943,943,943,943,943,944,944,944,944,944,944,944,944,944,944,944,944,944,944,944,944,944,945,944,944,944,945,945,944,944,944,944,944,944,944,944,943,943,943,944,943,944,944,944,945,945,945,944,945,944,944,944,944,944,944,944,944,944,944,944,943,943,943,943,943,943,944,944,944,945,945,945,945,945,944,944,944,944,944,944,944,944,944,945,945,945,945,945,945,945,945,945,944,944,944,944,944,944,944,944,944,943,943,943,943,943,943,943,943,943,943,942,942,942,942,942,942,942,942,943,943,943,943,944,944,944,943,943,943,943,943,942,943,942,943,942,942,943,943,943,943,943,943,943,943,942,942,942,942,942,942,942,942,942,942,942,943,942,943,943,943,943,942,942,942,942,942,942,942,942,942,942,942,942,942,942,942,942,942,942,942,942,942,942,942,942,942,942,942,942,942,942,942,942,942,942,942,942,942,942,942,942,942,942,942,942,942,942,942,942,942,942,942,942,942,942,942,942,942,942,942,942,942,942,942,942,942,942,942,942,941,941,941,941,941,941,941,941,941,941,941,941,941,941,941,941,941,941,941,941,941,941,941,941,941,941,941,941,941,941,941,941,941,941,941,941,941,941,941,941,941,941,941,941,941,941,940,940,940,939,938,937,937,936,936,935,935,934,934,933,933,933,933,933,933,933,933,933,933,933,934,934,935,936,936,937,939,940,940,941,941,941,941,941,941,941,941,941,941,941,941,941,940,941,941,941,941,941,941,941,941,941,941,940,940,940,940,940,940,940,940,940,940,940,940,940,940,940,940,940,940,940,940,940,941,940,940,940,940,941,940,941,940,940,940,940,940,940,940,940,940,940,940,940,940,940,940,940,940,940,940,940,940,940,940,940,940,940,940,940,940,940,940,940,940,940,940,940,940,940,940,941,940,941,940,940,940,940,940,940,940,940,940,940,940,940,940,940,940,940,940,940,941,941,941,941,941,941,941,941,941,941,941,941,941,940,941,941,941,941,940,940,940,940,940,940,940,940,940,941,941,941,941,941,941,941,941,941,940,940,940,940,940,940,940,940,940,940,941,941,940,940,940,940,940,940,940,940,940,940,941,940,940,940,940,940,940,940,940,940,940,940,940,940,940,940,940,940,939,940,940,939,940,940,940,940,940,940,940,940,940,939,939,939,939,938,939,938,939,939,939,939,939,939,938,938,938,938,937,937,938,938,938,938,938,2047,2047,2047,2047,2047,2047,2047,2047
944,943,943,943,943,943,942,942,942,942,942,942,942,942,942,943,943,944,944,944,944,944,944,944,944,943,943,943,944,944,943,943,943,943,943,943,943,943,943,943,943,943,943,943,943,943,944,944,944,944,944,944,943,943,943,942,943,943,944,944,944,944,944,944,944,944,944,944,943,943,943,943,942,943,944,944,944,944,944,944,945,944,944,944,943,944,943,943,943,944,943,943,943,944,944,944,944,943,943,943,944,944,944,944,944,944,945,944,944,944,944,944,944,944,944,944,944,945,944,945,944,945,945,945,945,945,945,945,945,945,945,944,944,944,943,944,944,944,944,944,944,945,945,944,944,945,944,945,945,945,945,944,945,944,944,944,944,944,944,944,944,944,944,944,945,945,945,945,945,945,945,945,945,945,945,945,945,945,945,945,945,945,945,945,945,945,945,945,945,945,945,945,944,945,945,944,944,943,943,943,943,943,943,943,944,943,943,943,943,943,942,943,942,943,943,943,944,944,944,944,944,944,944,944,943,944,944,944,943,943,944,944,943,943,943,943,943,943,942,942,943,942,942,942,942,942,942,942,942,942,942,942,942,943,943,943,943,943,943,943,943,942,942,942,942,942,942,942,942,942,942,942,942,942,942,942,942,942,942,942,942,942,942,942,942,942,942,942,942,942,942,942,942,942,942,942,942,942,942,942,942,942,942,942,942,942,942,942,942,942,941,942,942,942,942,942,942,942,943,942,943,942,942,942,942,942,942,941,941,941,941,941,941,941,941,941,941,941,941,941,941,941,941,941,941,941,941,941,941,941,941,941,941,941,941,941,941,941,941,941,941,941,941,941,941,941,941,941,942,941,941,941,941,941,940,940,939,938,937,937,936,935,935,934,934,934,933,933,933,933,933,933,933,933,933,933,933,934,934,935,936,936,937,939,940,941,942,942,942,942,942,942,942,942,941,941,941,941,941,941,941,941,941,941,941,941,941,941,941,941,941,940,940,940,940,940,940,940,940,940,940,940,940,940,940,940,940,940,940,940,941,941,941,940,940,941,941,941,941,940,941,940,940,940,940,940,940,940,940,940,940,940,940,940,940,940,940,940,940,940,940,940,940,941,940,940,940,940,940,940,940,941,941,941,940,940,941,940,941,940,941,941,941,941,941,941,940,940,940,940,940,940,940,940,940,940,940,940,941,941,941,941,941,941,941,941,941,941,941,941,941,941,941,941,941,941,941,941,941,940,941,940,940,940,940,941,941,941,941,941,941,941,941,941,941,941,941,941,941,941,941,941,940,940,940,940,941,940,940,940,941,941,941,941,941,941,941,941,941,941,940,940,940,940,940,940,940,941,940,941,940,940,940,940,940,940,940,940,940,940,940,940,940,940,940,940,940,940,940,940,940,939,939,939,939,939,939,940,939,939,939,939,939,938,938,938,938,938,938,938,939,939,2047,2047,2047,2047,2047,2047,2047,2047
943,943,943,943,943,943,943,943,943,942,943,943,943,943,942,943,943,944,944,944,944,944,944,944,944,943,943,943,944,944,943,943,943,944,944,944,943,944,944,943,944,944,944,944,944,944,945,945,944,944,944,944,943,944,943,943,943,944,944,944,944,944,944,944,944,944,944,944,944,944,944,944,943,943,944,944,944,944,944,944,945,945,944,944,944,944,944,944,943,944,944,944,944,944,944,944,944,944,944,944,944,944,944,945,944,945,945,945,945,945,945,945,945,945,945,945,945,945,945,945,945,944,945,945,945,945,945,945,945,945,945,945,945,944,944,944,944,944,944,944,945,945,945,945,944,944,944,945,945,945,945,945,945,945,945,945,945,945,945,945,944,945,945,945,945,945,945,945,945,945,945,945,945,945,945,945,945,945,945,945,945,945,945,945,945,945,945,945,945,945,945,945,945,945,945,944,944,944,943,944,944,944,944,944,944,944,944,943,943,943,943,943,943,943,944,944,944,944,944,944,944,944,944,944,944,944,944,944,944,944,944,944,944,943,944,943,943,943,942,942,942,942,942,942,942,942,942,942,942,942,942,943,943,943,943,944,943,944,943,943,943,943,943,942,942,942,943,942,943,942,942,942,942,942,942,942,942,942,942,942,942,942,942,942,942,942,942,942,942,942,942,942,943,942,943,943,942,942,943,942,942,942,942,942,942,942,942,942,942,942,942,942,943,943,943,943,943,943,943,943,943,943,943,943,943,943,943,942,941,941,941,941,941,941,941,942,942,941,941,941,941,941,941,941,941,941,941,941,942,942,942,942,942,942,942,942,941,941,941,942,942,942,942,942,942,942,942,942,942,941,941,941,941,941,941,940,939,938,937,937,936,935,935,934,934,933,933,933,933,933,933,933,933,933,933,933,933,934,934,935,936,936,937,939,941,941,942,942,942,943,942,942,942,942,942,942,942,941,941,941,941,941,941,941,941,941,941,941,941,941,941,941,941,941,941,941,941,940,940,940,940,940,940,940,940,941,940,941,940,940,941,941,941,941,940,941,941,941,941,941,941,941,941,940,940,941,940,941,940,940,940,941,940,940,940,940,941,941,941,941,941,941,941,941,941,941,941,940,940,941,941,941,941,941,941,941,941,940,940,940,941,941,941,941,941,941,941,940,940,940,940,940,940,940,940,940,940,940,941,941,941,941,941,941,942,941,941,941,941,941,941,941,941,941,941,941,941,941,941,940,941,941,940,941,941,941,941,941,941,941,941,941,941,941,941,941,941,941,941,941,941,941,940,940,940,941,941,941,941,941,941,941,941,941,941,941,941,941,941,941,941,941,940,940,941,941,941,941,941,941,941,941,941,940,940,940,940,940,941,940,941,941,941,940,940,940,940,940,940,940,940,940,940,940,939,939,940,939,939,939,939,939,939,939,939,939,939,939,939,939,939,939,2047,2047,2047,2047,2047,2047,2047,2047
943,944,944,944,943,944,944,943,943,943,943,943,943,943,942,943,943,944,944,945,944,944,944,944,944,944,943,943,944,945,944,944,944,945,944,943,943,944,944,944,944,944,944,944,944,944,945,945,945,945,944,944,944,944,944,944,944,944,944,944,945,944,944,945,945,944,944,944,944,944,944,944,943,943,944,944,944,944,944,944,945,945,945,945,945,945,944,944,944,944,944,944,944,944,944,944,944,944,944,944,944,944,945,945,945,945,945,945,945,945,945,945,945,945,945,945,945,945,945,945,945,945,945,945,945,945,945,945,945,945,945,945,945,944,944,944,945,945,945,945,945,945,945,945,945,945,945,945,945,945,945,945,945,945,945,945,945,945,945,945,945,945,945,945,945,945,945,945,945,945,945,945,945,945,945,945,945,945,945,945,945,945,945,945,945,945,945,945,945,945,945,945,945,945,945,945,944,944,944,944,944,944,944,944,945,944,944,944,944,944,944,944,944,944,945,945,945,945,944,945,945,944,944,944,944,944,944,944,944,944,944,944,944,944,944,943,944,943,943,943,943,943,943,943,943,943,943,943,943,943,943,944,944,944,943,944,944,944,944,943,943,943,943,943,943,943,943,943,943,943,943,943,943,942,942,943,943,943,943,943,943,943,943,943,943,943,943,943,943,943,942,943,943,943,943,943,943,943,943,943,942,942,942,942,942,942,942,943,943,943,942,943,943,944,944,944,943,944,944,943,943,943,943,943,943,943,943,942,942,942,942,942,942,942,942,942,942,941,942,942,941,941,941,942,941,942,941,942,943,942,942,942,942,942,942,942,942,942,942,942,942,942,942,942,942,942,942,942,943,942,942,942,941,941,941,940,939,937,937,936,935,935,934,934,933,933,933,933,933,933,933,933,933,933,933,933,933,934,934,934,935,936,937,939,941,942,943,943,943,943,943,943,943,943,943,942,942,942,942,941,941,941,941,941,941,941,941,941,941,942,941,941,941,941,941,941,941,941,941,941,941,941,941,941,941,941,941,941,941,941,941,941,941,941,941,941,941,941,941,941,941,941,941,940,940,941,940,941,940,941,941,941,941,941,941,941,941,941,941,941,941,941,941,941,941,941,941,941,941,941,941,941,941,941,941,941,941,941,941,941,941,941,941,941,941,941,941,941,941,941,941,940,940,940,940,941,941,941,941,941,941,941,941,941,942,942,941,941,941,941,941,941,941,941,941,941,941,941,941,941,941,941,941,941,941,941,941,941,941,941,941,941,941,941,941,941,941,941,941,941,941,941,941,941,941,941,941,941,941,941,941,941,942,942,942,942,941,941,941,941,941,941,941,941,941,941,941,941,941,941,941,941,941,941,941,941,941,941,941,941,941,941,941,941,941,941,940,941,940,941,940,940,940,940,940,940,940,940,940,940,940,939,939,939,939,939,939,939,939,939,940,939,2047,2047,2047,2047,2047,2047,2047,2047
944,944,944,944,944,944,944,944,944,944,944,943,944,943,943,943,943,944,944,944,944,944,944,944,944,944,943,943,944,945,944,944,944,944,944,944,943,944,944,944,944,945,945,945,945,945,945,945,945,945,945,945,945,945,944,944,944,945,945,945,945,945,945,945,945,944,944,944,944,944,944,944,944,944,944,944,944,944,944,944,945,945,945,945,945,945,945,945,944,945,944,945,944,945,945,944,944,944,944,944,945,945,945,945,945,945,945,945,945,945,945,945,945,946,945,946,946,946,946,945,945,945,945,945,945,945,945,945,945,945,945,945,945,945,945,945,945,945,945,945,945,946,946,945,945,945,945,945,945,945,945,945,946,946,946,946,946,946,945,945,945,945,945,945,945,945,946,945,945,945,945,945,945,945,945,945,945,945,945,945,945,945,945,946,946,946,945,945,945,945,945,945,945,945,945,945,945,945,945,945,945,945,945,945,945,945,945,945,945,945,945,945,945,945,945,945,945,945,945,945,945,945,945,945,944,944,945,945,945,945,945,945,945,945,945,944,944,944,944,944,943,943,943,943,943,943,944,943,943,944,944,944,944,944,943,944,944,944,944,944,943,944,944,943,943,944,943,943,944,943,943,943,943,943,943,943,943,943,943,943,943,943,943,943,943,943,943,943,943,943,943,943,944,943,943,944,943,943,943,943,943,943,943,943,943,943,943,943,944,943,943,943,944,944,944,944,944,944,944,943,943,943,943,943,943,943,943,942,942,943,942,942,942,942,942,942,942,942,942,942,942,942,942,942,942,942,942,942,943,943,943,943,943,943,943,943,942,942,942,942,943,943,943,943,943,943,943,943,943,942,942,942,942,941,941,940,939,937,936,936,935,934,934,934,933,933,933,933,933,933,933,933,933,933,933,933,933,933,933,934,935,935,937,939,943,943,943,943,944,944,944,943,943,943,943,943,943,942,942,942,942,942,942,942,942,942,942,942,942,942,942,942,942,942,942,941,941,941,941,941,941,941,941,941,941,941,941,941,941,941,941,941,941,941,941,941,941,941,941,941,941,941,941,940,940,941,941,941,941,941,942,942,942,941,942,942,942,941,941,941,941,941,941,941,941,941,941,941,941,941,941,941,941,941,941,941,941,941,941,941,941,941,941,941,941,941,941,941,941,941,941,941,941,941,941,941,941,941,941,941,941,941,942,941,942,942,942,942,942,941,941,941,941,941,942,941,941,941,941,941,941,941,941,941,941,941,941,941,941,942,942,941,941,941,941,941,941,941,941,941,941,941,941,941,941,941,941,941,941,942,942,942,942,942,942,942,942,942,942,941,941,941,941,941,941,941,941,941,941,941,941,941,941,941,941,941,941,941,941,941,941,941,941,941,941,941,941,941,941,941,941,941,941,941,941,941,941,940,940,940,940,940,940,940,940,940,939,939,940,940,940,940,2047,2047,2047,2047,2047,2047,2047,2047
944,944,944,944,944,944,944,944,944,944,944,944,944,944,943,943,943,943,944,945,944,944,944,944,944,944,944,944,945,944,944,945,944,945,944,944,944,944,944,944,945,945,945,945,945,945,945,945,945,945,945,945,945,945,945,944,944,945,945,945,946,945,945,945,945,945,945,944,944,944,945,945,944,944,944,945,945,945,945,945,945,945,945,945,945,945,945,945,945,945,945,945,945,945,945,945,945,945,945,945,945,945,945,945,945,946,946,946,946,946,946,946,946,946,945,946,946,946,946,945,945,945,945,945,945,945,945,945,946,946,946,946,945,945,945,945,945,945,946,946,946,946,946,946,946,946,945,946,946,946,946,946,946,946,946,946,946,946,946,946,946,946,946,946,945,946,946,946,946,946,945,946,946,945,945,945,945,945,945,945,945,945,945,946,946,946,945,946,945,946,946,945,945,946,946,945,945,945,945,945,945,945,945,945,945,945,945,945,945,945,945,945,945,945,945,945,945,945,945,945,945,945,945,945,945,945,945,945,945,945,945,945,945,945,945,945,945,944,944,944,944,944,944,944,944,944,944,944,944,944,944,945,944,944,944,945,944,945,944,944,944,944,944,944,944,944,944,944,944,944,944,944,944,944,944,944,944,943,944,944,944,944,943,944,943,944,944,944,944,944,944,944,944,944,944,944,943,944,944,944,943,944,944,944,944,944,944,944,944,944,944,944,944,945,945,945,944,944,944,944,944,943,943,943,944,944,944,943,943,943,943,943,943,943,942,943,943,942,943,942,942,942,942,942,942,943,942,943,943,943,943,943,943,943,943,943,943,943,943,943,943,943,943,943,944,944,944,943,944,943,942,942,942,941,941,940,938,937,936,936,935,934,934,934,933,933,933,933,933,933,933,933,933,933,933,933,933,933,933,934,934,935,937,940,943,943,943,944,944,944,944,943,943,943,943,943,943,942,942,942,942,942,942,942,942,942,942,942,943,943,943,943,943,943,943,942,942,942,942,941,942,941,941,941,941,941,941,941,941,941,941,941,941,941,941,941,941,941,942,941,941,941,941,2047,941,2047,2047,943,942,943,943,943,943,942,942,942,942,942,942,942,942,942,942,941,941,941,941,941,941,941,941,942,941,941,941,941,942,941,942,941,942,942,941,942,941,942,942,942,942,942,941,941,941,941,941,941,941,941,941,941,942,942,942,942,942,942,942,942,942,942,942,942,942,941,942,941,941,941,941,941,942,941,941,941,941,941,941,941,941,942,942,941,941,941,942,942,942,941,941,941,941,941,941,941,941,941,941,942,942,942,942,942,942,942,942,942,942,942,942,942,942,941,941,941,941,941,942,942,942,942,942,942,941,941,941,941,941,941,941,942,942,942,942,941,941,941,941,941,941,941,941,941,941,941,941,941,941,940,940,940,940,940,940,940,940,940,940,940,940,940,940,940,2047,2047,2047,2047,2047,2047,2047,2047
944,944,944,944,944,944,944,944,944,944,944,944,944,945,944,945,945,945,945,945,945,945,945,945,945,945,945,945,945,945,945,945,945,945,944,944,944,945,945,945,945,945,945,945,945,945,945,945,945,945,945,945,945,945,945,944,944,944,945,945,945,944,944,945,945,945,945,944,944,944,944,944,943,943,944,945,945,945,945,945,945,945,945,945,945,945,945,945,945,945,946,946,946,946,946,946,946,946,945,945,945,945,945,945,945,946,946,946,946,946,946,946,946,946,946,946,946,946,946,945,946,945,946,946,946,946,946,946,946,946,946,946,946,945,945,946,946,946,946,946,946,946,946,946,946,946,946,946,946,946,946,946,946,946,946,946,946,946,946,946,946,946,946,946,946,946,946,946,946,946,946,946,946,946,946,946,946,946,946,946,946,946,946,946,946,946,946,946,946,946,946,946,946,946,946,946,946,946,946,946,945,945,945,945,945,945,945,945,945,946,946,946,945,946,945,945,945,945,945,945,945,945,945,945,945,945,945,945,945,945,945,945,945,945,945,945,945,945,945,945,945,945,944,944,945,944,945,944,944,944,945,945,945,945,944,945,945,945,945,945,945,945,945,945,945,945,945,944,945,944,944,944,944,944,944,945,944,944,944,944,944,944,944,944,944,945,944,944,944,944,944,944,944,944,944,944,944,944,944,944,944,944,944,945,945,945,945,945,945,944,944,945,945,945,945,945,945,945,945,945,944,944,944,944,944,944,944,943,943,944,943,943,943,943,943,943,943,942,943,943,943,943,943,943,943,943,943,944,944,944,944,944,944,943,944,943,943,943,943,943,944,944,944,944,944,944,944,944,944,943,943,943,943,942,941,940,939,936,935,935,935,934,934,934,933,933,933,933,933,933,933,933,933,933,933,933,933,933,933,933,934,934,937,940,941,943,943,943,944,944,944,944,944,944,943,943,943,943,943,943,943,943,943,943,943,943,943,943,943,943,943,943,943,943,943,943,943,943,942,942,942,941,942,941,941,941,941,941,941,941,941,941,941,941,941,941,941,941,941,941,942,942,942,2047,2047,2047,942,2047,942,943,943,943,943,942,942,942,942,942,942,942,942,942,942,942,943,943,942,942,942,942,942,942,941,941,942,942,942,942,943,942,942,942,942,942,942,943,942,942,942,942,942,942,941,941,941,941,941,941,942,942,942,942,943,942,942,942,942,942,942,942,941,941,942,942,942,942,942,942,942,942,942,942,941,941,941,942,942,942,942,942,942,942,942,942,942,942,942,941,942,942,942,942,941,941,941,941,942,941,941,941,941,942,942,942,942,942,942,943,943,942,942,942,942,942,943,942,942,942,942,943,943,942,942,942,942,942,942,942,941,941,941,942,941,941,941,941,941,941,941,942,942,942,942,942,942,942,942,941,941,940,940,941,941,940,940,940,940,940,940,940,940,940,2047,2047,2047,2047,2047,2047,2047,2047
944,944,944,944,944,944,945,944,944,945,944,945,945,945,945,945,945,945,945,945,945,945,945,945,945,945,945,944,945,945,945,945,945,944,944,944,944,944,945,945,945,945,945,945,945,945,945,945,945,945,945,945,945,945,945,945,944,944,945,945,945,944,944,945,945,945,945,944,944,944,944,944,944,944,945,945,945,945,945,945,945,945,945,945,945,945,945,946,946,946,946,946,946,946,946,946,946,946,946,946,946,946,946,945,945,946,946,946,946,946,946,946,946,946,946,946,946,946,946,946,946,946,946,946,946,946,946,946,946,946,946,946,946,946,946,946,946,946,946,946,946,946,946,946,946,946,946,946,946,946,946,946,946,946,946,946,946,946,946,946,946,946,946,946,946,946,946,946,946,946,946,946,946,946,946,946,946,946,946,946,946,946,946,947,946,946,946,946,946,946,946,946,946,946,946,946,946,946,946,946,946,946,945,945,945,945,945,946,946,946,946,946,946,946,945,945,945,945,945,945,945,945,945,945,945,946,946,945,945,946,946,946,945,945,945,945,945,945,945,945,945,945,945,945,945,945,945,945,945,945,945,945,945,945,945,945,945,945,945,945,945,945,945,945,945,945,945,945,945,945,945,945,945,945,945,945,945,945,945,945,944,945,945,945,945,945,945,945,945,945,945,944,944,945,945,944,944,944,945,945,945,945,945,945,945,945,945,945,945,944,944,945,945,945,945,945,945,945,945,945,945,944,944,944,944,944,945,944,943,944,944,944,944,944,943,943,943,943,944,944,943,943,944,944,944,944,944,944,944,944,944,944,944,944,944,944,944,943,943,944,944,944,944,944,944,944,944,944,944,943,943,943,943,942,941,940,938,936,935,935,935,934,934,934,933,933,933,933,933,933,933,933,933,933,933,933,933,933,933,933,933,934,934,939,941,943,943,943,944,944,944,944,944,944,944,944,944,943,943,944,943,943,944,943,943,943,943,943,943,943,943,944,943,944,943,943,943,943,943,942,942,942,942,942,941,941,941,942,941,941,941,941,941,941,942,942,942,942,942,942,943,943,2047,2047,2047,2047,2047,2047,2047,942,942,943,943,942,942,943,942,942,943,943,943,943,943,943,943,943,943,942,942,942,942,942,942,942,942,942,942,942,943,943,943,943,942,942,943,943,942,942,942,942,942,942,941,942,941,941,942,942,942,942,943,942,943,943,943,942,942,942,942,942,942,942,942,942,942,942,942,942,942,942,942,942,941,941,942,942,942,942,942,943,943,942,942,942,942,942,942,942,942,942,942,942,941,941,941,942,942,942,942,942,942,942,942,942,942,942,942,943,943,943,943,942,942,942,943,943,942,943,943,943,943,943,942,942,942,942,942,942,941,942,942,942,942,941,942,942,942,942,942,943,943,943,942,942,942,942,942,941,941,941,941,941,941,941,940,941,940,940,940,940,940,940,2047,2047,2047,2047,2047,2047,2047,2047
944,945,945,944,944,945,945,945,945,945,945,946,945,945,945,946,946,946,945,945,945,946,945,945,945,946,945,945,945,946,946,946,945,945,945,945,945,945,945,944,945,945,945,945,945,945,945,945,945,945,945,946,945,945,945,945,945,945,945,945,945,944,945,945,946,946,945,944,944,944,944,944,944,944,945,945,945,945,945,945,946,946,945,945,945,946,946,946,946,946,946,946,946,946,946,946,946,946,946,946,946,946,946,946,946,946,946,946,946,946,946,946,946,946,946,946,946,946,947,946,946,947,947,947,946,946,946,946,946,946,946,946,946,946,946,946,946,946,946,946,946,946,946,946,946,947,946,947,947,947,946,946,946,946,946,946,946,946,946,946,946,946,946,946,946,946,946,946,946,946,946,946,946,946,946,946,946,946,946,946,946,947,947,947,947,947,946,946,946,946,946,946,946,946,946,946,946,946,946,946,946,946,945,945,946,945,946,946,946,946,946,946,946,946,946,945,945,945,945,945,945,945,945,945,945,946,946,946,946,946,946,946,945,945,945,945,945,945,945,945,945,945,945,945,945,945,945,945,945,945,945,945,945,945,945,945,945,945,945,945,945,945,945,945,945,945,945,945,945,945,945,945,945,945,945,945,945,945,945,945,944,945,945,945,945,945,945,945,945,945,945,945,945,945,945,945,945,945,945,945,945,945,945,945,945,945,945,945,945,945,945,945,945,945,945,945,945,945,945,945,945,944,945,945,945,945,945,944,944,944,944,944,944,944,944,944,944,944,944,944,944,944,944,944,944,944,944,944,944,944,944,944,944,944,944,944,944,944,944,944,944,944,944,944,944,944,944,944,944,944,944,943,943,942,941,940,938,937,936,935,935,934,934,934,934,934,933,933,933,934,934,934,933,934,934,934,933,933,933,933,933,933,934,933,941,943,943,944,944,944,944,944,944,944,944,944,944,944,944,944,944,944,944,944,944,944,944,944,944,943,943,944,944,944,943,943,943,943,943,942,943,942,942,942,942,942,942,942,942,941,942,941,942,942,942,942,942,942,942,943,943,943,2047,2047,2047,2047,943,943,943,943,943,943,943,943,943,943,943,943,943,943,943,943,943,943,943,943,943,943,943,943,942,942,942,942,942,943,943,943,943,943,943,943,943,942,943,942,942,942,942,943,943,942,942,942,942,942,942,942,942,942,943,943,943,943,943,943,942,943,943,942,942,943,942,942,943,942,942,942,942,942,942,942,941,942,942,942,942,942,943,943,943,943,942,942,943,943,943,942,942,943,943,942,942,942,942,942,943,942,942,942,942,942,943,943,942,942,943,943,943,943,943,943,943,943,943,943,943,943,943,944,943,943,943,942,943,943,942,942,942,942,942,943,942,942,942,942,942,942,942,943,942,943,942,942,942,942,942,941,941,941,941,941,941,941,941,941,940,940,940,941,940,941,2047,2047,2047,2047,2047,2047,2047,2047
