255,255,255,255,255,255,255,255,255,255,255,255,255,255,255,255,255,255,255,255,255,255,255,255,255,255,255,255,255,255,255,255,255,255,255,255,255,255,255,255,255,255,255,255,255,255,255,255,255,255,255,255,255,255,255,255,255,255,255,255,255,255,255,255,255,255,255,255,255,255,255,255,255,255,255,255,255,255,255,255,255,255,255,255,255,255,255,255,255,255,255,255,255,255,255,255,255,255,255,255,255,255,255,255,255,255,255,255,255,255,255,255,255,255,255,255,255,255,255,255,255,255,255,255,255,255,255,255,255,255,255,255,255,255,255,255,255,255,255,255,255,255,255,255,255,255,255,255,255,255,255,255,255,255,255,255,255,255,255,255,255,255,255,255,255,255,255,255,255,255,255,255,255,255,255,255,255,255,255,255,255,255,255,255,255,255,255,255,255,255,255,255,255,255,255,255,255,255,255,255,255,255,255,255,255,255,255,255,255,255,255,255,255,255,255,255,255,255,255,255,255,255,255,255,255,255,255,255,255,255,255,255,255,255,255,255,255,255,255,255,255,255,255,255,255,255,255,255,255,255,255,255,255,255,255,255,255,255,255,255,255,255,255,255,255,255,255,255,255,255,255,255,255,255,255,255,255,255,255,255,255,255,255,255,255,255,255,255,255,255,255,255,255,255,255,255,255,255,255,255,255,255,255,255,255,255,255,255,255,255,159,159,159,159,158,158,158,157,157,157,157,157,156,255,152,152,152,152,152,152,151,151,151,151,151,151,151,151,151,151,151,151,151,151,151,151,151,151,151,151,151,151,151,151,152,152,152,152,152,152,152,153,153,153,153,153,153,153,154,154,154,154,154,154,154,154,154,154,154,154,154,154,155,155,155,155,155,155,156,156,156,156,156,156,156,157,157,157,157,158,158,158,158,158,158,158,158,158,157,157,157,157,157,157,157,157,157,157,157,157,157,157,156,156,156,156,156,156,157,156,157,156,157,157,157,157,156,156,156,156,156,156,156,156,156,152,153,153,153,152,152,152,152,151,151,151,151,151,149,149,149,148,148,148,148,148,147,147,145,145,145,144,144,143,143,143,143,143,143,143,143,144,144,144,144,145,145,145,145,145,145,145,145,145,145,144,144,144,143,144,143,143,143,143,143,143,143,143,143,143,143,143,143,143,143,143,143,255,255,255,255,255,255,255,255,255,255,255,255,253,253,253,253,252,253,253,253,253,252,253,252,252,252,252,252,252,252,252,252,252,252,252,252,252,252,252,252,252,252,252,252,252,252,252,252,252,252,252,252,252,252,252,252,252,252,252,252,252,252,252,252,252,252,252,252,252,252,252,252,251,251,252,252,255,255,255,255,255,255,255,255,251,251,251,251,251,251,251,251,251,251,250,250,255,255,255,255,255,255,255,251,251,251,251,251,250,250,250,250,250,250,250,255,255,255,255,255,255,255,255
255,255,255,255,255,255,255,255,255,255,255,255,255,255,255,255,255,255,255,255,255,255,255,255,255,255,255,255,255,255,255,255,255,255,255,255,255,255,255,255,255,255,255,255,255,255,255,255,255,255,255,255,255,255,255,255,255,255,255,255,255,255,255,255,255,255,255,255,255,255,255,255,255,255,255,255,255,255,255,255,255,255,255,255,255,255,255,255,255,255,255,255,255,255,255,255,255,255,255,255,255,255,255,255,255,255,255,255,255,255,255,255,255,255,255,255,255,255,255,255,255,255,255,255,255,255,255,255,255,255,255,255,255,255,255,255,255,255,255,255,255,255,255,255,255,255,255,255,255,255,255,255,255,255,255,255,255,255,255,255,255,255,255,255,255,255,255,255,255,255,255,255,255,255,255,255,255,255,255,255,255,255,255,255,255,255,255,255,255,255,255,255,255,255,255,255,255,255,255,255,255,255,255,255,255,255,255,255,255,255,255,255,255,255,255,255,255,255,255,255,255,255,255,255,255,255,255,255,255,255,255,255,255,255,255,255,255,255,255,255,255,255,255,255,255,255,255,255,255,255,255,255,255,255,255,255,255,255,255,255,255,255,255,255,255,255,255,255,255,255,255,255,255,255,255,255,255,255,255,255,255,255,255,255,255,255,255,255,255,255,255,255,255,255,255,255,255,255,255,255,255,255,255,255,255,255,255,255,255,255,159,159,159,159,158,158,158,157,157,157,157,156,156,255,154,153,153,153,152,152,152,151,151,151,151,151,151,151,151,151,151,151,151,151,151,151,151,151,151,151,151,151,151,152,152,152,152,152,152,152,153,153,153,153,153,153,153,153,154,154,154,154,154,154,154,154,154,154,154,154,154,154,155,155,155,155,155,155,155,156,156,156,156,156,156,156,157,157,157,157,158,158,158,157,157,157,157,157,157,157,157,157,157,157,157,157,157,157,157,157,157,156,156,156,156,156,156,156,156,156,156,156,156,156,156,156,156,156,156,156,156,156,155,155,153,152,152,152,152,152,152,152,151,151,151,151,151,151,148,148,148,148,148,148,147,147,147,147,255,145,144,144,144,143,143,142,142,142,142,143,143,144,144,144,144,144,145,145,145,145,145,145,145,145,144,144,143,143,143,143,143,143,143,143,143,143,143,143,143,143,143,142,143,143,143,143,143,255,255,255,255,255,143,255,255,255,255,255,255,255,253,252,252,252,252,252,252,252,252,252,252,252,252,252,252,252,252,252,252,252,252,252,252,252,252,252,252,252,252,252,252,252,252,252,252,252,252,252,252,252,252,252,252,252,252,252,252,252,252,252,252,252,252,252,252,252,252,252,252,252,252,252,252,254,253,255,255,255,255,255,255,251,251,251,251,251,251,251,251,251,251,251,250,255,255,255,255,255,255,255,255,251,251,251,251,250,250,250,250,250,250,255,255,255,255,255,255,255,255,255
255,255,255,255,255,255,255,255,255,255,255,255,255,255,255,255,255,255,255,255,255,255,255,255,255,255,255,255,255,255,255,255,255,255,255,255,255,255,255,255,255,255,255,255,255,255,255,255,255,255,255,255,255,255,255,255,255,255,255,255,255,255,255,255,255,255,255,255,255,255,255,255,255,255,255,255,255,255,255,255,255,255,255,255,255,255,255,255,255,255,255,255,255,255,255,255,255,255,255,255,255,255,255,255,255,255,255,255,255,255,255,255,255,255,255,255,255,255,255,255,255,255,255,255,255,255,255,255,255,255,255,255,255,255,255,255,255,255,255,255,255,255,255,255,255,255,255,255,255,255,255,255,255,255,255,255,255,255,255,255,255,255,255,255,255,255,255,255,255,255,255,255,255,255,255,255,255,255,255,255,255,255,255,255,255,255,255,255,255,255,255,255,255,255,255,255,255,255,255,255,255,255,255,255,255,255,255,255,255,255,255,255,255,255,255,255,255,255,255,255,255,255,255,255,255,255,255,255,255,255,255,255,255,255,255,255,255,255,255,255,255,255,255,255,255,255,255,255,255,255,255,255,255,255,255,255,255,255,255,255,255,255,255,255,255,255,255,255,255,255,255,255,255,255,255,255,255,255,255,255,255,255,255,255,255,255,255,255,255,255,255,255,255,255,255,255,255,255,255,255,255,255,255,255,255,255,255,255,255,255,255,159,159,159,159,158,158,158,157,157,157,156,156,156,154,154,153,153,152,152,152,152,151,151,151,151,151,151,151,151,151,150,150,151,151,151,151,151,151,151,151,151,152,152,152,152,152,152,152,152,153,153,153,153,153,153,153,153,154,154,154,154,154,154,154,154,154,154,154,154,154,154,155,155,155,155,155,155,155,156,156,156,156,156,156,156,157,157,157,157,157,157,157,157,157,157,157,157,157,157,157,157,157,157,157,157,157,157,157,157,157,156,156,156,156,156,156,156,156,156,156,156,156,156,156,156,156,156,156,156,156,156,156,153,153,152,152,152,152,152,152,151,151,151,151,151,148,148,148,148,148,148,148,147,147,147,147,145,145,145,144,144,143,142,142,142,142,142,142,142,142,144,144,144,144,144,144,144,144,144,144,144,144,144,144,143,143,143,143,143,143,143,143,143,143,143,143,142,143,143,142,142,142,142,143,143,255,255,255,255,255,255,142,142,255,255,255,255,255,255,255,252,252,252,252,252,253,252,252,252,252,252,252,252,252,252,252,252,252,252,252,252,252,252,252,252,252,252,252,252,252,252,252,252,252,252,252,252,252,252,252,252,252,252,252,252,252,252,252,252,252,252,252,252,252,252,252,252,252,251,252,252,252,254,253,255,255,255,255,255,251,251,251,251,251,251,251,251,251,251,251,251,250,255,255,255,255,255,255,255,251,251,251,251,251,250,250,250,250,250,250,250,255,255,255,255,255,255,255,255
255,255,255,255,255,255,255,255,255,255,255,255,255,255,255,255,255,255,255,255,255,255,255,255,255,255,255,255,255,255,255,255,255,255,255,255,255,255,255,255,255,255,255,255,255,255,255,255,255,255,255,255,255,255,255,255,255,255,255,255,255,255,255,255,255,255,255,255,255,255,255,255,255,255,255,255,255,255,255,255,255,255,255,255,255,255,255,255,255,255,255,255,255,255,255,255,255,255,255,255,255,255,255,255,255,255,255,255,255,255,255,255,255,255,255,255,255,255,255,255,255,255,255,255,255,255,255,255,255,255,255,255,255,255,255,255,255,255,255,255,255,255,255,255,255,255,255,255,255,255,255,255,255,255,255,255,255,255,255,255,255,255,255,255,255,255,255,255,255,255,255,255,255,255,255,255,255,255,255,255,255,255,255,255,255,255,255,255,255,255,255,255,255,255,255,255,255,255,255,255,255,255,255,255,255,255,255,255,255,255,255,255,255,255,255,255,255,255,255,255,255,255,255,255,255,255,255,255,255,255,255,255,255,255,255,255,255,255,255,255,255,255,255,255,255,255,255,255,255,255,255,255,255,255,255,255,255,255,255,255,255,255,255,255,255,255,255,255,255,255,255,255,255,255,255,255,255,255,255,255,255,255,255,255,255,255,255,255,255,255,255,255,255,255,255,255,255,255,255,255,255,255,255,255,255,255,255,255,255,255,255,159,159,159,159,158,158,158,157,157,157,156,156,156,156,154,154,153,153,152,152,152,151,151,151,151,151,151,151,151,151,151,151,151,151,151,151,151,151,151,152,152,152,152,152,152,152,152,152,153,153,153,153,153,153,153,153,153,153,154,154,154,154,154,154,154,154,154,154,154,154,154,155,155,155,155,155,155,155,156,156,156,156,156,156,156,157,157,157,157,157,157,157,157,157,157,157,157,157,157,157,157,157,157,157,157,157,157,156,156,156,156,156,156,156,156,156,156,156,156,156,156,156,156,156,156,156,156,156,156,156,156,154,153,153,152,152,152,152,151,151,151,151,150,150,149,149,148,148,148,148,147,147,147,147,147,255,255,255,144,144,143,143,142,142,142,142,142,142,142,143,143,144,144,144,144,144,144,144,144,144,144,144,144,143,143,143,142,142,143,143,143,143,143,142,142,142,142,142,142,142,142,142,142,143,143,143,255,255,255,142,142,142,142,142,255,255,255,255,255,255,252,252,252,252,252,252,252,252,252,252,252,252,252,252,252,252,252,252,252,252,252,252,252,252,252,252,252,252,252,252,252,252,252,252,252,252,252,252,252,252,252,252,252,252,252,252,252,252,252,252,252,252,252,252,252,252,252,252,251,252,252,252,254,253,255,255,254,254,255,251,251,251,251,251,251,251,251,251,251,251,251,255,255,255,255,255,255,255,255,251,251,251,251,251,251,250,250,250,250,250,255,255,255,255,255,255,255,255,255
255,255,255,255,255,255,255,255,255,255,255,255,255,255,255,255,255,255,255,255,255,255,255,255,255,255,255,255,255,255,255,255,255,255,255,255,255,255,255,255,255,255,255,255,255,255,255,255,255,255,255,255,255,255,255,255,255,255,255,255,255,255,255,255,255,255,255,255,255,255,255,255,255,255,255,255,255,255,255,255,255,255,255,255,255,255,255,255,255,255,255,255,255,255,255,255,255,255,255,255,255,255,255,255,255,255,255,255,255,255,255,255,255,255,255,255,255,255,255,255,255,255,255,255,255,255,255,255,255,255,255,255,255,255,255,255,255,255,255,255,255,255,255,255,255,255,255,255,255,255,255,255,255,255,255,255,255,255,255,255,255,255,255,255,255,255,255,255,255,255,255,255,255,255,255,255,255,255,255,255,255,255,255,255,255,255,255,255,255,255,255,255,255,255,255,255,255,255,255,255,255,255,255,255,255,255,255,255,255,255,255,255,255,255,255,255,255,255,255,255,255,255,255,255,255,255,255,255,255,255,255,255,255,255,255,255,255,255,255,255,255,255,255,255,255,255,255,255,255,255,255,255,255,255,255,255,255,255,255,255,255,255,255,255,255,255,255,255,255,255,255,255,255,255,255,255,255,255,255,255,255,255,255,255,255,255,255,255,255,255,255,255,255,255,255,255,255,255,255,255,255,255,255,255,255,255,255,255,255,255,255,159,159,159,159,159,158,158,157,157,157,156,156,156,155,155,154,154,153,152,152,152,152,151,151,151,151,151,151,151,151,151,151,151,151,151,151,151,151,151,152,152,152,152,152,152,152,152,153,153,153,153,153,153,153,153,153,153,153,153,154,154,154,154,154,154,154,154,154,154,154,154,155,155,155,155,155,155,155,155,156,156,156,156,156,156,157,157,157,157,157,157,157,157,156,157,156,157,156,157,157,157,157,157,157,157,157,156,156,156,156,156,156,156,156,156,156,156,156,156,156,156,156,156,156,156,156,156,156,156,155,154,154,153,153,152,152,152,152,151,151,151,150,150,149,149,149,148,148,147,147,147,147,146,146,144,144,144,143,143,143,143,143,142,142,142,142,142,142,142,143,143,144,144,144,144,144,144,144,144,144,144,143,143,143,143,142,142,142,142,142,142,142,142,142,142,142,142,142,142,142,142,142,142,142,142,142,142,255,141,141,141,141,142,142,255,255,255,255,255,255,255,252,252,252,252,252,252,252,252,252,252,252,252,252,252,252,252,252,252,252,252,252,252,252,252,252,252,252,252,252,252,252,252,252,252,252,252,252,252,252,252,252,252,252,252,252,252,252,252,252,252,252,252,252,252,252,252,252,252,252,252,252,254,252,253,254,254,255,255,252,251,251,251,251,251,251,251,251,251,251,251,255,255,255,255,255,255,255,255,251,251,251,251,251,251,250,250,250,250,250,255,255,255,255,255,255,255,255,255
255,255,255,255,255,255,255,255,255,255,255,255,255,255,255,255,255,255,255,255,255,255,255,255,255,255,255,255,255,255,255,255,255,255,255,255,255,255,255,255,255,255,255,255,255,255,255,255,255,255,255,255,255,255,255,255,255,255,255,255,255,255,255,255,255,255,255,255,255,255,255,255,255,255,255,255,255,255,255,255,255,255,255,255,255,255,255,255,255,255,255,255,255,255,255,255,255,255,255,255,255,255,255,255,255,255,255,255,255,255,255,255,255,255,255,255,255,255,255,255,255,255,255,255,255,255,255,255,255,255,255,255,255,255,255,255,255,255,255,255,255,255,255,255,255,255,255,255,255,255,255,255,255,255,255,255,255,255,255,255,255,255,255,255,255,255,255,255,255,255,255,255,255,255,255,255,255,255,255,255,255,255,255,255,255,255,255,255,255,255,255,255,255,255,255,255,255,255,255,255,255,255,255,255,255,255,255,255,255,255,255,255,255,255,255,255,255,255,255,255,255,255,255,255,255,255,255,255,255,255,255,255,255,255,255,255,255,255,255,255,255,255,255,255,255,255,255,255,255,255,255,255,255,255,255,255,255,255,255,255,255,255,255,255,255,255,255,255,255,255,255,255,255,255,255,255,255,255,255,255,255,255,255,255,255,255,255,255,255,255,255,255,255,255,255,255,255,255,255,255,255,255,255,255,255,255,255,255,255,255,255,159,159,159,159,159,158,158,158,157,157,157,156,156,156,155,154,154,153,153,152,152,152,152,151,151,151,151,151,151,151,151,151,151,151,151,151,151,151,152,152,152,152,152,152,152,152,152,153,153,153,153,153,153,153,153,153,153,153,153,153,154,154,154,154,154,154,154,154,154,155,155,155,155,155,155,155,155,155,155,155,156,156,156,156,156,156,157,157,157,157,157,157,156,156,156,156,156,156,156,156,156,156,157,156,156,156,156,156,156,156,156,156,156,156,156,156,156,156,156,156,156,156,156,156,156,156,156,156,155,155,154,153,153,152,152,152,151,151,151,151,150,150,149,149,148,148,148,147,147,147,147,147,146,146,144,144,144,143,143,142,142,142,142,142,142,142,142,142,142,143,143,143,143,143,144,144,144,144,144,143,143,143,143,142,142,142,142,142,142,142,142,142,142,142,141,141,141,141,141,142,141,141,142,142,142,142,141,141,141,141,141,141,141,141,255,255,255,255,255,255,255,255,255,255,252,252,252,252,252,252,252,252,252,252,252,252,252,252,252,252,252,252,252,252,252,252,252,252,252,252,252,252,252,252,252,252,252,252,252,252,252,252,252,252,252,252,252,252,252,252,252,252,252,252,252,252,252,251,251,252,252,252,252,252,253,254,254,252,252,252,251,251,251,251,251,251,251,251,251,251,251,251,255,255,255,255,255,255,255,251,251,251,251,251,250,250,250,250,250,250,255,255,255,255,255,255,255,255,255
255,255,255,255,255,255,255,255,255,255,255,255,255,255,255,255,255,255,255,255,255,255,255,255,255,255,255,255,255,255,255,255,255,255,255,255,255,255,255,255,255,255,255,255,255,255,255,255,255,255,255,255,255,255,255,255,255,255,255,255,255,255,255,255,255,255,255,255,255,255,255,255,255,255,255,255,255,255,255,255,255,255,255,255,255,255,255,255,255,255,255,255,255,255,255,255,255,255,255,255,255,255,255,255,255,255,255,255,255,255,255,255,255,255,255,255,255,255,255,255,255,255,255,255,255,255,255,255,255,255,255,255,255,255,255,255,255,255,255,255,255,255,255,255,255,255,255,255,255,255,255,255,255,255,255,255,255,255,255,255,255,255,255,255,255,255,255,255,255,255,255,255,255,255,255,255,255,255,255,255,255,255,255,255,255,255,255,255,255,255,255,255,255,255,255,255,255,255,255,255,255,255,255,255,255,255,255,255,255,255,255,255,255,255,255,255,255,255,255,255,255,255,255,255,255,255,255,255,255,255,255,255,255,255,255,255,255,255,255,255,255,255,255,255,255,255,255,255,255,255,255,255,255,255,255,255,255,255,255,255,255,255,255,255,255,255,255,255,255,255,255,255,255,255,255,255,255,255,255,255,255,255,255,255,255,255,255,255,255,255,255,255,255,255,255,255,255,255,255,255,255,255,255,255,255,255,255,255,255,255,255,255,159,159,159,159,158,158,158,157,157,157,156,156,156,155,154,154,154,153,152,152,152,152,152,151,151,151,151,151,151,151,151,151,151,151,151,151,151,152,152,152,152,152,152,152,152,152,153,153,153,153,153,153,153,153,153,153,153,153,154,154,154,154,154,154,154,154,154,154,154,154,155,155,155,155,155,155,155,155,155,155,156,156,156,156,156,156,157,157,157,156,157,156,156,156,156,156,156,156,156,156,156,156,156,156,156,156,156,156,156,156,156,156,156,156,156,156,156,156,156,156,156,156,156,156,156,156,155,155,154,153,153,152,152,152,151,151,151,150,150,150,149,149,149,148,148,148,147,147,146,146,146,145,145,144,144,144,143,143,142,142,142,142,141,142,142,142,142,142,143,143,143,143,143,144,143,143,143,143,143,143,142,142,142,142,142,142,142,142,142,142,141,141,141,141,141,141,141,141,141,141,141,141,142,142,255,141,141,141,141,141,141,141,141,141,142,255,255,255,255,255,255,255,255,255,252,252,252,252,252,252,252,252,252,252,252,252,252,252,252,252,252,252,252,252,252,252,252,252,252,252,252,252,252,252,252,252,252,252,252,252,252,252,252,252,252,252,252,252,252,252,252,252,252,252,252,252,252,252,252,252,252,252,252,252,252,252,252,252,252,252,252,251,251,251,251,251,251,251,251,251,251,255,255,255,255,255,251,251,251,251,251,251,251,251,250,250,250,250,250,250,255,255,255,255,255,255,255,255
255,255,255,255,255,255,255,255,255,255,255,255,255,255,255,255,255,255,255,255,255,255,255,255,255,255,255,255,255,255,255,255,255,255,255,255,255,255,255,255,255,255,255,255,255,255,255,255,255,255,255,255,255,255,255,255,255,255,255,255,255,255,255,255,255,255,255,255,255,255,255,255,255,255,255,255,255,255,255,255,255,255,255,255,255,255,255,255,255,255,255,255,255,255,255,255,255,255,255,255,255,255,255,255,255,255,255,255,255,255,255,255,255,255,255,255,255,255,255,255,255,255,255,255,255,255,255,255,255,255,255,255,255,255,255,255,255,255,255,255,255,255,255,255,255,255,255,255,255,255,255,255,255,255,255,255,255,255,255,255,255,255,255,255,255,255,255,255,255,255,255,255,255,255,255,255,255,255,255,255,255,255,255,255,255,255,255,255,255,255,255,255,255,255,255,255,255,255,255,255,255,255,255,255,255,255,255,255,255,255,255,255,255,255,255,255,255,255,255,255,255,255,255,255,255,255,255,255,255,255,255,255,255,255,255,255,255,255,255,255,255,255,255,255,255,255,255,255,255,255,255,255,255,255,255,255,255,255,255,255,255,255,255,255,255,255,255,255,255,255,255,255,255,255,255,255,255,255,255,255,255,255,255,255,255,255,255,255,255,255,255,255,255,255,255,255,255,255,255,255,255,255,255,255,255,255,255,255,255,255,255,255,159,159,159,159,158,158,158,158,157,157,156,156,156,155,155,154,154,153,153,152,152,152,152,152,151,151,151,151,151,151,151,151,151,151,151,151,151,152,152,152,152,152,152,152,153,153,153,153,153,153,153,153,153,153,153,153,153,153,154,154,154,154,154,154,154,154,154,154,154,154,155,155,155,155,155,155,155,155,155,155,156,156,156,156,156,156,156,156,156,156,156,156,156,156,156,156,156,156,156,156,156,156,156,156,156,156,156,156,156,156,156,156,156,156,156,156,156,156,156,156,156,156,156,156,155,155,155,154,154,154,152,152,152,151,151,151,150,150,150,149,149,149,148,148,148,147,147,147,146,146,146,145,145,144,144,143,143,143,142,142,141,142,142,141,142,142,142,142,143,143,143,143,143,143,143,143,142,143,142,142,142,142,142,142,142,142,141,142,141,141,141,141,141,141,141,141,141,141,141,141,140,140,140,140,140,140,140,140,141,141,141,140,141,141,141,255,255,255,255,255,255,255,255,255,255,252,252,252,252,252,252,252,252,252,252,252,252,252,252,252,252,252,252,252,252,252,252,252,252,252,252,252,252,252,252,252,252,252,252,252,252,252,252,252,252,252,252,252,252,252,252,252,252,252,252,252,252,252,252,252,252,252,252,252,252,252,252,252,252,252,252,252,251,251,251,251,251,251,251,251,251,255,255,255,255,255,251,251,251,251,251,251,251,250,250,250,250,250,250,250,255,255,255,255,255,255,255,255
255,255,255,255,255,255,255,255,255,255,255,255,255,255,255,255,255,255,255,255,255,255,255,255,255,255,255,255,255,255,255,255,255,255,255,255,255,255,255,255,255,255,255,255,255,255,255,255,255,255,255,255,255,255,255,255,255,255,255,255,255,255,255,255,255,255,255,255,255,255,255,255,255,255,255,255,255,255,255,255,255,255,255,255,255,255,255,255,255,255,255,255,255,255,255,255,255,255,255,255,255,255,255,255,255,255,255,255,255,255,255,255,255,255,255,255,255,255,255,255,255,255,255,255,255,255,255,255,255,255,255,255,255,255,255,255,255,255,255,255,255,255,255,255,255,255,255,255,255,255,255,255,255,255,255,255,255,255,255,255,255,255,255,255,255,255,255,255,255,255,255,255,255,255,255,255,255,255,255,255,255,255,255,255,255,255,255,255,255,255,255,255,255,255,255,255,255,255,255,255,255,255,255,255,255,255,255,255,255,255,255,255,255,255,255,255,255,255,255,255,255,255,255,255,255,255,255,255,255,255,255,255,255,255,255,255,255,255,255,255,255,255,255,255,255,255,255,255,255,255,255,255,255,255,255,255,255,255,255,255,255,255,255,255,255,255,255,255,255,255,255,255,255,255,255,255,255,255,255,255,255,255,255,255,255,255,255,255,255,255,255,255,255,255,255,255,255,255,255,255,255,255,255,255,255,255,255,255,255,255,255,255,159,159,159,159,158,158,158,158,157,157,157,156,156,155,154,154,154,154,153,153,153,152,152,152,152,151,151,151,151,151,151,151,151,151,151,151,152,152,152,152,152,152,152,153,153,153,153,153,153,153,153,153,153,153,153,153,153,153,154,153,154,154,154,154,154,154,154,154,154,154,154,155,155,155,155,155,155,155,155,155,155,156,156,156,156,156,156,156,156,156,156,156,156,156,156,156,156,156,156,156,156,156,156,156,156,156,155,155,155,156,156,156,156,156,156,156,156,156,156,156,156,156,155,155,155,155,155,155,155,255,152,152,151,151,151,150,150,150,149,149,149,149,148,148,148,147,146,147,146,146,145,145,145,144,143,143,142,142,141,141,141,141,141,141,141,142,142,142,142,142,143,143,143,142,142,142,142,142,142,142,142,142,142,142,142,141,141,141,141,141,141,141,141,141,141,141,140,140,140,140,140,140,140,140,140,140,140,140,140,140,140,140,140,140,141,255,255,255,255,255,255,255,255,255,255,255,252,252,252,252,252,252,252,252,252,252,252,252,252,252,252,252,252,252,252,252,252,252,252,252,252,252,252,252,252,252,252,252,252,252,252,252,252,252,252,252,252,252,252,252,252,252,252,252,252,252,252,252,252,252,252,252,252,252,252,252,252,252,252,252,252,252,251,251,251,251,251,251,251,251,251,251,251,251,251,251,251,251,251,251,251,251,251,251,250,250,250,250,250,250,255,255,255,255,255,255,255,255
255,255,255,255,255,255,255,255,255,255,255,255,255,255,255,255,255,255,255,255,255,255,255,255,255,255,255,255,255,255,255,255,255,255,255,255,255,255,255,255,255,255,255,255,255,255,255,255,255,255,255,255,255,255,255,255,255,255,255,255,255,255,255,255,255,255,255,255,255,255,255,255,255,255,255,255,255,255,255,255,255,255,255,255,255,255,255,255,255,255,255,255,255,255,255,255,255,255,255,255,255,255,255,255,255,255,255,255,255,255,255,255,255,255,255,255,255,255,255,255,255,255,255,255,255,255,255,255,255,255,255,255,255,255,255,255,255,255,255,255,255,255,255,255,255,255,255,255,255,255,255,255,255,255,255,255,255,255,255,255,255,255,255,255,255,255,255,255,255,255,255,255,255,255,255,255,255,255,255,255,255,255,255,255,255,255,255,255,255,255,255,255,255,255,255,255,255,255,255,255,255,255,255,255,255,255,255,255,255,255,255,255,255,255,255,255,255,255,255,255,255,255,255,255,255,255,255,255,255,255,255,255,255,255,255,255,255,255,255,255,255,255,255,255,255,255,255,255,255,255,255,255,255,255,255,255,255,255,255,255,255,255,255,255,255,255,255,255,255,255,255,255,255,255,255,255,255,255,255,255,255,255,255,255,255,255,255,255,255,255,255,255,255,255,255,255,255,255,174,173,173,173,173,173,255,255,255,255,255,255,255,255,159,159,159,159,158,158,158,158,157,157,157,156,156,155,155,154,154,154,153,153,153,152,152,152,152,151,151,151,151,151,151,151,151,151,151,152,152,152,152,152,152,152,152,153,153,153,153,153,153,153,153,153,153,153,153,153,153,153,153,153,153,154,154,154,154,154,154,154,154,154,154,155,155,155,155,155,155,155,155,155,155,156,156,156,156,156,156,156,156,156,156,156,156,156,156,156,156,156,156,156,156,156,156,156,155,155,155,155,155,155,156,156,156,156,156,156,156,156,156,156,156,156,155,155,155,155,154,154,255,255,152,152,151,151,151,150,150,150,149,149,149,149,148,148,147,147,146,146,146,145,145,144,144,144,143,143,142,141,141,141,141,141,141,141,141,142,142,142,143,142,143,142,142,142,142,142,142,142,142,142,142,142,141,141,141,140,141,140,140,141,140,140,140,140,140,140,140,140,140,140,140,140,140,140,140,140,140,140,140,140,140,140,140,140,140,255,255,255,255,255,255,255,255,255,255,255,255,252,252,252,252,252,252,252,252,252,252,252,252,252,252,252,252,252,252,252,252,252,252,252,252,252,252,252,252,252,252,252,252,252,252,252,252,252,252,252,252,252,252,252,252,252,252,252,252,252,252,252,252,252,252,252,252,253,252,252,252,252,252,252,252,251,251,251,251,251,251,251,251,251,251,250,250,250,250,251,251,251,251,251,251,251,251,250,250,250,250,250,250,250,255,255,255,255,255,255,255,255
255,255,255,255,255,255,255,255,255,255,255,255,255,255,255,255,255,255,255,255,255,255,255,255,255,255,255,255,255,255,255,255,255,255,255,255,255,255,255,255,255,255,255,255,255,255,255,255,255,255,255,255,255,255,255,255,255,255,255,255,255,255,255,255,255,255,255,255,255,255,255,255,255,255,255,255,255,255,255,255,255,255,255,255,255,255,255,255,255,255,255,255,255,255,255,255,255,255,255,255,255,255,255,255,255,255,255,255,255,255,255,255,255,255,255,255,255,255,255,255,255,255,255,255,255,255,255,255,255,255,255,255,255,255,255,255,255,255,255,255,255,255,255,255,255,255,255,255,255,255,255,255,255,255,255,255,255,255,255,255,255,255,255,255,255,255,255,255,255,255,255,255,255,255,255,255,255,255,255,255,255,255,255,255,255,255,255,255,255,255,255,255,255,255,255,255,255,255,255,255,255,255,255,255,255,255,255,255,255,255,255,255,255,255,255,255,255,255,255,255,255,255,255,255,255,255,255,255,255,255,255,255,255,255,255,255,255,255,255,255,255,255,255,255,255,255,255,255,255,255,255,255,255,255,255,255,255,255,255,255,255,255,255,255,255,255,255,255,255,255,255,255,255,255,255,255,255,255,255,255,255,255,255,255,255,255,255,255,255,255,255,255,255,255,255,255,255,255,174,173,173,173,173,172,172,172,172,255,255,255,255,255,159,159,159,159,158,158,158,158,157,157,157,156,156,156,155,154,154,154,153,153,153,153,153,152,152,152,152,152,151,151,151,151,151,152,152,152,152,152,152,152,152,152,152,153,153,153,153,153,153,153,153,153,153,153,153,153,153,153,154,154,154,154,154,154,154,154,154,154,154,154,154,154,155,155,155,155,155,155,155,155,155,156,156,156,156,156,156,156,155,155,155,156,156,156,156,156,156,156,156,156,156,156,155,155,155,155,155,155,155,155,155,155,155,155,156,155,156,155,155,156,155,155,155,155,155,155,154,154,255,255,255,151,151,151,150,150,150,150,149,148,148,148,148,147,146,146,146,146,145,145,145,144,144,144,143,142,142,141,141,141,141,141,141,141,141,142,142,142,142,142,142,142,142,142,142,142,142,142,142,141,141,141,140,140,140,140,140,140,140,140,140,140,140,140,140,140,140,140,140,140,140,139,139,139,139,139,139,139,139,140,140,140,139,140,140,140,255,255,255,255,255,255,255,255,255,255,255,252,252,252,252,252,252,252,252,252,252,252,252,252,252,252,252,252,252,253,252,252,252,252,252,252,252,252,252,252,252,252,252,252,252,252,252,252,252,252,252,252,252,252,252,252,252,252,252,252,252,252,252,252,252,252,252,253,252,252,253,253,252,252,252,252,251,251,251,251,251,251,251,251,251,251,250,250,250,251,251,251,251,251,251,251,251,250,250,250,250,250,250,250,255,255,255,255,255,255,255,255
255,255,255,255,255,255,255,255,255,255,255,255,255,255,255,255,255,255,255,255,255,255,255,255,255,255,255,255,255,255,255,255,255,255,255,255,255,255,255,255,255,255,255,255,255,255,255,255,255,255,255,255,255,255,255,255,255,255,255,255,255,255,255,255,255,255,255,255,255,255,255,255,255,255,255,255,255,255,255,255,255,255,255,255,255,255,255,255,255,255,255,255,255,255,255,255,255,255,255,255,255,255,255,255,255,255,255,255,255,255,255,255,255,255,255,255,255,255,255,255,255,255,255,255,255,255,255,255,255,255,255,255,255,255,255,255,255,255,255,255,255,255,255,255,255,255,255,255,255,255,255,255,255,255,255,255,255,255,255,255,255,255,255,255,255,255,255,255,255,255,255,255,255,255,255,255,255,255,255,255,255,255,255,255,255,255,255,255,255,255,255,255,255,255,255,255,255,255,255,255,255,255,255,255,255,255,255,255,255,255,255,255,255,255,255,255,255,255,255,255,255,255,255,255,255,255,255,255,255,255,255,255,255,255,255,255,255,255,255,255,255,255,255,255,255,255,255,255,255,255,255,255,255,255,255,255,255,255,255,255,255,255,255,255,255,255,255,255,255,255,255,255,255,255,255,255,255,255,255,255,255,255,255,255,255,255,173,173,173,255,255,255,255,255,255,255,255,255,173,173,173,173,173,172,172,172,172,171,171,255,255,255,159,159,159,159,159,158,158,158,157,157,157,157,156,156,156,155,154,154,153,153,153,153,153,153,152,152,152,152,152,152,152,151,151,152,152,152,152,152,152,152,152,152,152,153,153,153,153,153,153,153,153,153,153,153,153,154,153,153,154,154,154,154,154,154,154,154,154,154,154,154,155,155,155,155,155,155,155,155,155,155,155,156,156,156,156,155,155,155,155,155,155,155,156,156,156,156,156,156,156,156,156,156,155,155,155,155,155,155,155,155,155,155,155,155,155,155,155,155,155,155,155,155,155,155,155,154,154,255,255,255,255,151,151,150,150,150,150,149,148,148,148,147,146,146,146,146,145,145,145,145,144,144,144,143,143,142,141,141,141,141,141,140,141,141,141,142,142,142,142,142,142,142,142,142,142,142,141,141,141,141,141,140,140,140,140,140,140,140,140,140,140,140,140,140,140,140,140,140,140,140,139,139,139,139,139,139,139,139,139,139,139,139,139,139,139,139,255,255,255,255,255,255,255,255,255,255,255,252,252,252,252,252,252,252,252,252,252,252,252,252,252,252,252,252,252,252,252,252,252,252,252,252,252,252,252,252,252,252,252,252,252,252,252,252,252,252,252,252,252,252,252,252,252,252,252,252,252,252,252,252,252,252,252,254,253,253,253,253,252,252,252,251,251,251,251,251,251,251,251,251,251,251,250,251,250,251,251,251,251,251,251,250,251,250,250,250,250,250,250,250,255,255,255,255,255,255,255,255
255,255,255,255,255,255,255,255,255,255,255,255,255,255,255,255,255,255,255,255,255,255,255,255,255,255,255,255,255,255,255,255,255,255,255,255,255,255,255,255,255,255,255,255,255,255,255,255,255,255,255,255,255,255,255,255,255,255,255,255,255,255,255,255,255,255,255,255,255,255,255,255,255,255,255,255,255,255,255,255,255,255,255,255,255,255,255,255,255,255,255,255,255,255,255,255,255,255,255,255,255,255,255,255,255,255,255,255,255,255,255,255,255,255,255,255,255,255,255,255,255,255,255,255,255,255,255,255,255,255,255,255,255,255,255,255,255,255,255,255,255,255,255,255,255,255,255,255,255,255,255,255,255,255,255,255,255,255,255,255,255,255,255,255,255,255,255,255,255,255,255,255,255,255,255,255,255,255,255,255,255,255,255,255,255,255,255,255,255,255,255,255,255,255,255,255,255,255,255,255,255,255,255,255,255,255,255,255,255,255,255,255,255,255,255,255,255,255,255,255,255,255,255,255,255,255,255,255,255,255,255,255,255,255,255,255,255,255,255,255,255,255,255,255,255,255,255,255,255,255,255,255,255,255,255,255,255,255,255,255,255,255,255,255,255,255,255,255,255,255,255,255,255,255,255,255,255,255,255,255,255,255,255,173,173,173,173,173,173,173,173,173,173,255,255,255,255,173,173,173,173,173,172,172,172,172,171,171,171,171,171,255,159,159,159,159,159,158,158,158,157,157,157,157,156,156,156,156,154,154,153,153,153,153,153,153,153,152,152,152,152,152,152,152,152,152,152,152,152,152,152,152,152,152,152,153,153,153,153,153,153,153,153,153,153,153,153,154,154,154,154,154,154,154,154,154,154,154,154,154,154,154,155,155,155,155,155,155,155,155,155,155,155,155,155,155,155,155,155,155,155,155,155,155,155,155,155,155,155,155,155,156,156,155,155,155,155,155,155,155,155,155,155,155,155,155,155,155,155,155,155,155,155,155,155,155,155,154,255,255,255,255,255,151,150,150,150,150,149,149,148,147,147,146,146,146,145,145,145,145,145,144,144,144,143,143,142,141,141,141,141,141,140,140,141,141,141,142,142,142,142,142,142,142,142,142,141,141,141,141,141,141,140,140,140,140,140,140,140,140,140,140,140,140,140,140,140,140,140,140,140,139,139,139,138,139,139,139,139,139,139,139,139,139,139,139,139,139,139,139,255,255,255,255,255,255,255,255,255,255,252,253,253,252,252,252,252,252,252,252,252,252,252,252,253,252,252,252,252,252,252,252,252,252,252,252,252,252,252,252,252,252,252,252,252,252,252,252,252,252,252,252,252,252,252,252,252,252,252,252,252,252,251,251,251,251,252,252,252,252,252,252,252,251,251,251,251,251,251,251,251,251,251,251,251,251,251,251,251,251,251,251,251,250,251,250,250,250,250,250,250,250,255,255,255,255,255,255,255,255
255,255,255,255,255,255,255,255,255,255,255,255,255,255,255,255,255,255,255,255,255,255,255,255,255,255,255,255,255,255,255,255,255,255,255,255,255,255,255,255,255,255,255,255,255,255,255,255,255,255,255,255,255,255,255,255,255,255,255,255,255,255,255,255,255,255,255,255,255,255,255,255,255,255,255,255,255,255,255,255,255,255,255,255,255,255,255,255,255,255,255,255,255,255,255,255,255,255,255,255,255,255,255,255,255,255,255,255,255,255,255,255,255,255,255,255,255,255,255,255,255,255,255,255,255,255,255,255,255,255,255,255,255,255,255,255,255,255,255,255,255,255,255,255,255,255,255,255,255,255,255,255,255,255,255,255,255,255,255,255,255,255,255,255,255,255,255,255,255,255,255,255,255,255,255,255,255,255,255,255,255,255,255,255,255,255,255,255,255,255,255,255,255,255,255,255,255,255,255,255,255,255,255,255,255,255,255,255,255,255,255,255,255,255,255,255,255,255,255,255,255,255,255,255,255,255,255,255,255,255,255,255,255,255,255,255,255,255,255,255,255,255,255,255,255,255,255,255,255,255,255,255,255,255,255,255,255,255,255,255,255,255,255,255,255,255,255,255,255,255,255,255,255,255,255,255,255,255,255,255,255,255,173,173,173,173,173,173,173,173,173,173,173,173,173,173,173,173,173,173,173,173,172,172,172,171,171,171,171,171,171,160,159,159,159,159,159,158,158,158,157,157,157,157,157,156,156,156,154,154,153,153,153,153,153,153,153,153,152,152,152,152,152,152,152,152,152,152,152,152,152,152,152,153,153,153,153,153,153,153,153,153,153,153,153,153,153,154,153,154,154,154,154,154,154,154,154,154,154,154,154,154,155,155,155,155,155,155,155,155,155,155,155,155,155,155,155,155,155,155,155,155,155,155,155,155,155,155,155,155,155,155,155,155,155,155,155,155,155,155,155,155,155,155,155,155,155,155,155,155,155,155,155,155,155,155,155,154,255,255,255,255,255,150,150,150,150,149,149,148,147,147,147,146,146,146,145,145,145,145,144,144,144,144,144,141,141,141,141,141,140,140,140,140,140,141,142,142,142,142,142,142,142,142,141,141,141,141,141,141,140,140,140,140,140,140,139,139,139,139,139,139,139,139,140,140,140,139,139,139,139,139,139,138,138,138,138,138,138,138,138,138,138,139,139,139,139,139,139,139,139,139,255,255,255,255,255,255,255,255,252,252,253,252,252,252,252,252,252,252,252,252,252,252,252,252,252,252,252,252,252,252,252,252,252,252,252,252,252,252,252,252,252,252,252,252,252,252,252,252,252,252,252,252,252,252,252,252,252,252,252,252,251,251,251,251,252,252,255,255,252,252,251,251,251,251,251,251,251,251,251,251,251,251,251,251,251,251,251,251,251,251,250,250,250,250,250,250,250,250,250,250,255,255,255,255,255,255,255,255
255,255,255,255,255,255,255,255,255,255,255,255,255,255,255,255,255,255,255,255,255,255,255,255,255,255,255,255,255,255,255,255,255,255,255,255,255,255,255,255,255,255,255,255,255,255,255,255,255,255,255,255,255,255,255,255,255,255,255,255,255,255,255,255,255,255,255,255,255,255,255,255,255,255,255,255,255,255,255,255,255,255,255,255,255,255,255,255,255,255,255,255,255,255,255,255,255,255,255,255,255,255,255,255,255,255,255,255,255,255,255,255,255,255,255,255,255,255,255,255,255,255,255,255,255,255,255,255,255,255,255,255,255,255,255,255,255,255,255,255,255,255,255,255,255,255,255,255,255,255,255,255,255,255,255,255,255,255,255,255,255,255,255,255,255,255,255,255,255,255,255,255,255,255,255,255,255,255,255,255,255,255,255,255,255,255,255,255,255,255,255,255,255,255,255,255,255,255,255,255,255,255,255,255,255,255,255,255,255,255,255,255,255,255,255,255,255,255,255,255,255,255,255,255,255,255,255,255,255,255,255,255,255,255,255,255,255,255,255,255,255,255,255,255,255,255,255,255,255,255,255,255,255,255,255,255,255,255,255,255,255,255,255,255,255,255,255,255,255,255,255,255,255,255,255,255,255,255,255,255,255,173,173,173,173,173,173,173,173,173,173,173,173,173,173,173,173,173,172,172,172,172,172,172,171,171,171,171,170,170,170,160,160,159,159,159,159,158,158,158,158,157,157,157,157,156,156,156,154,154,154,153,153,153,153,153,153,153,152,152,152,152,152,152,152,152,152,152,152,152,152,152,152,153,153,153,153,153,153,153,153,153,153,153,153,153,154,153,154,154,154,154,154,154,153,154,154,154,154,154,154,154,155,155,155,155,155,155,155,155,155,155,155,155,155,155,155,155,155,155,155,155,155,155,155,155,155,155,155,155,155,155,155,155,155,155,155,155,155,155,155,155,155,155,155,155,155,155,155,155,155,155,155,155,155,155,154,255,255,255,255,255,255,150,150,150,149,149,148,147,147,146,146,146,146,145,145,145,145,145,144,144,144,144,144,142,141,141,141,141,140,140,140,140,140,141,142,142,142,142,142,142,141,141,141,141,141,141,140,140,140,140,140,140,139,139,139,139,139,139,139,139,139,139,139,139,139,139,139,139,139,139,138,138,138,138,138,138,138,138,138,138,138,138,138,138,138,139,139,138,139,138,138,138,255,255,255,255,255,255,255,255,252,252,252,252,252,252,252,252,252,252,252,252,252,252,253,252,252,252,252,252,252,252,252,252,252,252,252,252,252,252,252,252,252,252,252,252,252,252,252,252,252,252,252,252,252,252,252,251,251,251,251,251,251,251,252,252,253,252,252,251,251,251,251,251,251,251,251,251,251,251,251,251,251,251,251,251,251,251,251,251,250,250,250,250,250,250,250,250,250,250,255,255,255,255,255,255,255,255
255,255,255,255,255,255,255,255,255,255,255,255,255,255,255,255,255,255,255,255,255,255,255,255,255,255,255,255,255,255,255,255,255,255,255,255,255,255,255,255,255,255,255,255,255,255,255,255,255,255,255,255,255,255,255,255,255,255,255,255,255,255,255,255,255,255,255,255,255,255,255,255,255,255,255,255,255,255,255,255,255,255,255,255,255,255,255,255,255,255,255,255,255,255,255,255,255,255,255,255,255,255,255,255,255,255,255,255,255,255,255,255,255,255,255,255,255,255,255,255,255,255,255,255,255,255,255,255,255,255,255,255,255,255,255,255,255,255,255,255,255,255,255,255,255,255,255,255,255,255,255,255,255,255,255,255,255,255,255,255,255,255,255,255,255,255,255,255,255,255,255,255,255,255,255,255,255,255,255,255,255,255,255,255,255,255,255,255,255,255,255,255,255,255,255,255,255,255,255,255,255,255,255,255,255,255,255,255,255,255,255,255,255,255,255,255,255,255,255,255,255,255,255,255,255,255,255,255,255,255,255,255,255,255,255,255,255,255,255,255,255,255,255,255,255,255,255,255,255,255,255,255,255,255,255,255,255,255,255,255,255,255,255,255,255,255,255,255,255,255,255,255,255,255,255,255,255,255,173,173,173,173,173,173,173,173,173,173,173,173,173,173,173,172,172,172,172,172,172,172,171,171,171,171,171,171,170,170,170,170,169,160,160,159,159,159,159,159,158,158,158,157,157,157,157,157,156,156,156,156,154,154,153,153,153,153,153,153,153,152,152,152,152,152,152,152,152,152,152,152,152,152,153,153,153,153,153,153,153,153,153,153,153,153,153,153,154,154,154,154,154,154,154,154,154,154,154,154,154,154,154,154,155,155,155,155,155,155,155,155,155,155,155,155,155,155,155,155,155,155,155,155,155,155,155,155,155,155,155,155,155,155,155,155,155,155,155,155,154,154,154,155,155,155,155,155,155,155,155,155,155,155,155,155,155,155,154,255,255,255,255,255,255,255,255,149,149,148,147,147,147,146,146,146,145,145,145,145,145,145,144,144,144,144,144,141,141,140,141,141,140,140,140,140,140,141,142,142,142,142,142,142,141,141,141,141,140,140,140,140,140,140,139,139,139,139,139,139,139,139,139,139,139,139,139,139,138,138,139,138,138,138,138,138,138,138,138,138,137,138,137,138,138,138,138,138,138,138,138,138,138,138,138,138,138,255,255,255,255,255,255,255,255,253,252,252,252,252,252,252,252,252,252,252,252,252,252,252,252,252,252,252,252,252,252,252,252,252,252,252,252,252,252,252,252,252,252,252,252,252,252,252,252,252,252,252,252,252,252,251,251,251,251,251,251,252,252,252,253,252,252,252,252,252,251,251,251,251,251,251,251,251,251,251,251,250,250,250,250,250,250,250,250,250,250,250,250,250,250,250,250,250,255,255,255,255,255,255,255,255
255,255,255,255,255,255,255,255,255,255,255,255,255,255,255,255,255,255,255,255,255,255,255,255,255,255,255,255,255,255,255,255,255,255,255,255,255,255,255,255,255,255,255,255,255,255,255,255,255,255,255,255,255,255,255,255,255,255,255,255,255,255,255,255,255,255,255,255,255,255,255,255,255,255,255,255,255,255,255,255,255,255,255,255,255,255,255,255,255,255,255,255,255,255,255,255,255,255,255,255,255,255,255,255,255,255,255,255,255,255,255,255,255,255,255,255,255,255,255,255,255,255,255,255,255,255,255,255,255,255,255,255,255,255,255,255,255,255,255,255,255,255,255,255,255,255,255,255,255,255,255,255,255,255,255,255,255,255,255,255,255,255,255,255,255,255,255,255,255,255,255,255,255,255,255,255,255,255,255,255,255,255,255,255,255,255,255,255,255,255,255,255,255,255,255,255,255,255,255,255,255,255,255,255,255,255,255,255,255,255,255,255,255,255,255,255,255,255,255,255,255,255,255,255,255,255,255,255,255,255,255,255,255,255,255,255,255,255,255,255,255,255,255,255,255,255,255,255,255,255,255,255,255,255,255,255,255,255,255,255,255,255,255,255,255,255,255,255,255,255,255,255,255,255,255,255,255,173,173,173,173,173,173,173,173,173,173,173,173,173,173,173,173,172,172,172,172,172,172,172,171,171,171,171,171,171,170,170,169,169,169,169,169,168,168,159,159,159,158,158,158,157,157,157,157,157,157,156,156,156,156,154,154,153,153,153,153,153,153,153,152,152,152,152,152,152,152,152,152,152,152,153,153,153,153,153,153,153,153,153,153,153,153,153,153,154,154,154,154,154,154,154,154,154,154,154,154,154,154,154,154,154,155,155,155,155,155,155,155,155,155,155,155,155,155,155,155,155,155,155,155,155,155,155,155,155,155,155,155,155,154,155,154,155,155,155,154,154,154,154,154,154,155,155,155,155,155,155,155,155,154,155,154,155,155,154,255,255,255,255,255,255,255,255,255,148,148,148,147,147,146,146,146,145,145,145,145,145,144,144,144,144,144,144,255,141,141,140,140,140,140,140,140,140,140,141,141,142,142,142,142,141,141,141,141,140,140,140,140,140,140,139,139,139,139,139,139,139,139,139,139,139,139,138,138,138,138,138,138,138,138,138,138,138,138,138,138,137,137,137,137,137,137,137,137,137,138,138,138,138,138,138,138,138,138,138,138,255,255,255,255,255,255,255,252,252,252,252,252,252,252,252,252,252,252,252,252,252,252,252,252,252,252,252,252,252,252,252,252,252,252,252,252,252,252,252,252,252,252,252,252,252,252,252,252,252,252,252,252,252,251,251,251,251,251,252,252,254,253,253,253,253,253,253,251,251,251,251,251,251,251,251,251,251,250,250,250,250,250,250,250,250,250,250,250,250,250,251,250,250,250,250,255,255,255,255,255,255,255,255
255,255,255,255,255,255,255,255,255,255,255,255,255,255,255,255,255,255,255,255,255,255,255,255,255,255,255,255,255,255,255,255,255,255,255,255,255,255,255,255,255,255,255,255,255,255,255,255,255,255,255,255,255,255,255,255,255,255,255,255,255,255,255,255,255,255,255,255,255,255,255,255,255,255,255,255,255,255,255,255,255,255,255,255,255,255,255,255,255,255,255,255,255,255,255,255,255,255,255,255,255,255,255,255,255,255,255,255,255,255,255,255,255,255,255,255,255,255,255,255,255,255,255,255,255,255,255,255,255,255,255,255,255,255,255,255,255,255,255,255,255,255,255,255,255,255,255,255,255,255,255,255,255,255,255,255,255,255,255,255,255,255,255,255,255,255,255,255,255,255,255,255,255,255,255,255,255,255,255,255,255,255,255,255,255,255,255,255,255,255,255,255,255,255,255,255,255,255,255,255,255,255,255,255,255,255,255,255,255,255,255,255,255,255,255,255,255,255,255,255,255,255,255,255,255,255,255,255,255,255,255,255,255,255,255,255,255,255,255,255,255,255,255,255,255,255,255,255,255,255,255,255,255,255,255,255,255,255,255,255,255,255,255,255,255,255,255,255,255,255,255,255,255,255,255,173,172,172,172,172,172,173,173,173,173,173,173,173,173,173,173,173,173,172,172,172,172,172,172,171,171,171,171,171,170,170,170,169,169,169,169,169,168,168,168,159,159,159,158,158,158,157,157,157,157,157,157,156,156,156,155,154,154,154,153,153,153,153,153,153,153,153,152,152,152,152,152,152,152,152,152,153,153,153,153,153,153,153,153,153,153,153,153,153,153,154,154,154,154,154,154,154,154,154,154,154,154,154,154,154,154,154,155,155,155,155,155,155,155,155,155,154,154,154,154,154,155,155,155,155,155,155,155,155,155,155,155,155,155,155,154,154,154,155,154,154,154,154,154,154,154,154,154,154,155,155,154,154,154,154,154,154,154,154,154,154,255,255,255,255,255,255,255,255,255,148,148,147,147,146,146,146,145,145,145,145,145,145,144,144,144,144,144,144,140,140,140,140,140,140,140,140,140,140,140,141,141,142,142,142,141,141,141,140,140,140,140,140,140,140,139,139,139,139,139,139,139,139,139,139,139,139,139,138,138,138,138,138,138,138,137,137,137,137,137,137,137,135,137,137,137,137,137,137,137,137,137,137,137,137,138,138,138,138,138,138,137,255,255,255,255,255,255,255,255,255,252,252,252,252,252,252,252,252,252,252,252,252,252,252,252,252,252,252,252,252,252,252,252,252,252,252,252,252,252,252,252,252,252,252,252,252,252,252,252,252,252,252,252,252,252,251,251,251,251,252,252,253,253,253,253,253,253,253,252,252,251,251,251,251,251,251,251,251,250,250,250,250,250,250,251,250,250,250,250,250,251,251,250,250,250,250,255,255,255,255,255,255,255,255
255,255,255,255,255,255,255,255,255,255,255,255,255,255,255,255,255,255,255,255,255,255,255,255,255,255,255,255,255,255,255,255,255,255,255,255,255,255,255,255,255,255,255,255,255,255,255,255,255,255,255,255,255,255,255,255,255,255,255,255,255,255,255,255,255,255,255,255,255,255,255,255,255,255,255,255,255,255,255,255,255,255,255,255,255,255,255,255,255,255,255,255,255,255,255,255,255,255,255,255,255,255,255,255,255,255,255,255,255,255,255,255,255,255,255,255,255,255,255,255,255,255,255,255,255,255,255,255,255,255,255,255,255,255,255,255,255,255,255,255,255,255,255,255,255,255,255,255,255,255,255,255,255,255,255,255,255,255,255,255,255,255,255,255,255,255,255,255,255,255,255,255,255,255,255,255,255,255,255,255,255,255,255,255,255,255,255,255,255,255,255,255,255,255,255,255,255,255,255,255,255,255,255,255,255,255,255,255,255,255,255,255,255,255,255,255,255,255,255,255,255,255,255,255,255,255,255,255,255,255,255,255,255,255,255,255,255,255,255,255,255,255,255,255,255,255,255,255,255,255,255,255,255,255,255,255,255,255,255,255,255,255,255,255,255,255,255,255,255,255,255,255,255,255,172,172,172,172,172,172,172,172,172,173,173,173,173,173,173,173,173,173,172,172,172,172,172,172,171,171,171,171,171,170,170,170,170,169,169,169,169,169,168,168,168,159,159,159,158,158,158,157,157,157,157,157,157,156,156,156,155,155,154,154,154,153,153,153,153,153,153,153,153,153,152,152,152,153,153,153,153,153,153,153,153,153,153,153,153,153,153,153,153,153,154,154,154,154,154,154,154,154,154,154,154,154,154,154,154,154,154,154,155,155,155,155,155,155,155,155,154,154,154,154,154,154,154,154,155,155,155,155,155,154,155,154,155,155,154,154,154,154,155,155,155,154,154,154,154,154,154,154,154,154,154,154,154,154,154,154,154,154,154,154,154,154,255,255,255,255,255,255,255,255,148,148,148,147,146,146,146,145,145,145,145,145,145,144,144,144,144,144,143,143,140,140,140,140,140,140,140,140,140,140,140,141,141,141,141,141,141,141,140,140,140,140,139,139,139,139,139,139,139,139,139,139,139,139,139,139,139,138,138,138,138,138,138,138,137,137,137,137,137,137,136,136,135,135,135,136,136,136,136,136,136,136,136,136,136,136,136,136,137,137,137,137,137,137,137,137,255,255,255,255,255,255,255,252,252,252,252,252,252,252,252,252,252,252,252,252,252,252,252,252,252,252,252,252,252,252,252,252,252,252,252,252,252,252,252,252,252,252,252,252,252,252,252,252,252,252,251,251,251,251,251,252,252,252,253,253,253,253,253,253,253,253,251,251,251,251,251,251,251,251,250,250,250,250,251,250,251,251,250,250,250,250,251,251,250,250,250,251,255,255,255,255,255,255,255,255
255,255,255,255,255,255,255,255,255,255,255,255,255,255,255,255,255,255,255,255,255,255,255,255,255,255,255,255,255,255,255,255,255,255,255,255,255,255,255,255,255,255,255,255,255,255,255,255,255,255,255,255,255,255,255,255,255,255,255,255,255,255,255,255,255,255,255,255,255,255,255,255,255,255,255,255,255,255,255,255,255,255,255,255,255,255,255,255,255,255,255,255,255,255,255,255,255,255,255,255,255,255,255,255,255,255,255,255,255,255,255,255,255,255,255,255,255,255,255,255,255,255,255,255,255,255,255,255,255,255,255,255,255,255,255,255,255,255,255,255,255,255,255,255,255,255,255,255,255,255,255,255,255,255,255,255,255,255,255,255,255,255,255,255,255,255,255,255,255,255,255,255,255,255,255,255,255,255,255,255,255,255,255,255,255,255,255,255,255,255,255,255,255,255,255,255,255,255,255,255,255,255,255,255,255,255,255,255,255,255,255,255,255,255,255,255,255,255,255,255,255,255,255,255,255,255,255,255,255,255,255,255,255,255,255,255,255,255,255,255,255,255,255,255,255,255,255,255,255,255,255,255,255,255,255,255,255,255,255,255,255,255,255,255,255,255,255,255,255,255,255,173,173,172,172,172,172,172,172,172,172,172,172,172,172,173,173,173,173,173,173,172,172,172,172,172,172,171,171,171,171,171,171,170,170,170,169,169,169,169,169,169,168,168,168,160,159,159,159,158,158,157,157,157,157,157,157,156,156,156,155,155,155,154,154,154,153,153,153,153,153,153,153,153,153,153,153,153,153,153,153,153,153,153,153,153,153,153,153,153,153,153,154,154,154,154,154,154,154,154,154,154,154,154,154,154,154,154,154,154,154,154,155,155,155,155,155,154,154,154,154,154,154,154,154,154,154,154,154,154,155,155,155,154,154,154,154,154,154,154,154,154,154,154,154,154,154,154,154,154,154,154,154,154,154,154,154,154,154,154,154,154,154,154,154,153,255,255,255,255,255,255,255,148,148,148,147,147,146,146,146,145,145,145,145,145,145,144,144,144,144,143,143,255,255,140,140,140,140,140,140,140,140,140,140,141,141,141,141,141,140,140,140,140,139,139,139,139,139,139,139,139,138,138,138,138,138,138,138,138,138,138,138,138,138,138,138,138,137,137,137,137,136,136,136,135,135,135,135,135,136,136,136,136,136,136,136,136,136,136,136,136,137,137,137,137,137,137,137,137,137,255,255,255,255,255,255,255,252,252,252,252,252,252,252,252,252,252,252,252,252,252,252,252,252,252,252,252,252,252,252,252,252,252,252,252,252,252,252,252,252,252,252,252,252,252,252,252,252,251,251,251,251,252,252,251,252,252,253,253,253,253,253,253,253,253,253,251,251,251,251,251,251,251,251,251,250,250,251,250,251,251,250,250,250,251,251,251,250,250,252,252,255,255,255,255,255,255,255,255
255,255,255,255,255,255,255,255,255,255,255,255,255,255,255,255,255,255,255,255,255,255,255,255,255,255,255,255,255,255,255,255,255,255,255,255,255,255,255,255,255,255,255,255,255,255,255,255,255,255,255,255,255,255,255,255,255,255,255,255,255,255,255,255,255,255,255,255,255,255,255,255,255,255,255,255,255,255,255,255,255,255,255,255,255,255,255,255,255,255,255,255,255,255,255,255,255,255,255,255,255,255,255,255,255,255,255,255,255,255,255,255,255,255,255,255,255,255,255,255,255,255,255,255,255,255,255,255,255,255,255,255,255,255,255,255,255,255,255,255,255,255,255,255,255,255,255,255,255,255,255,255,255,255,255,255,255,255,255,255,255,255,255,255,255,255,255,255,255,255,255,255,255,255,255,255,255,255,255,255,255,255,255,255,255,255,255,255,255,255,255,255,255,255,255,255,255,255,255,255,255,255,255,255,255,255,255,255,255,255,255,255,255,255,255,255,255,255,255,255,255,255,255,255,255,255,255,255,255,255,255,255,255,255,255,255,255,255,255,255,255,255,255,255,255,255,255,255,255,255,255,255,255,255,255,255,255,255,255,255,255,255,255,255,255,255,255,255,255,173,173,173,173,172,172,172,172,172,172,172,172,172,172,172,172,172,172,172,173,173,172,172,172,172,172,172,172,171,171,171,171,171,170,170,170,170,169,169,169,169,169,169,168,168,168,168,159,159,159,158,158,157,157,157,157,157,157,156,156,156,156,155,155,154,154,154,154,154,153,153,153,153,153,153,153,153,153,153,153,153,153,153,153,153,153,153,153,153,153,153,153,153,154,154,154,154,154,154,154,154,154,154,154,154,154,154,154,154,154,154,154,154,155,155,155,155,155,154,154,154,154,154,154,154,154,154,154,154,154,154,154,154,154,154,154,154,154,154,154,154,154,154,154,154,154,154,154,154,154,154,154,154,154,154,154,154,154,154,154,154,154,154,154,154,153,153,153,153,153,255,255,255,255,148,148,147,147,146,146,145,145,145,145,145,145,145,144,144,144,144,144,144,144,255,255,140,140,140,139,140,140,139,139,140,140,140,141,141,141,141,140,140,140,139,139,139,139,139,139,139,138,138,138,138,138,138,138,138,138,138,138,138,138,138,138,138,138,138,137,137,136,136,136,136,135,135,135,135,135,135,135,136,136,136,136,136,136,136,136,136,136,136,136,136,136,136,136,137,137,137,137,137,255,255,255,255,255,252,252,252,252,252,252,252,252,252,252,252,252,252,252,252,252,252,252,252,252,252,252,252,252,252,252,252,252,252,252,252,252,252,252,252,252,252,252,252,252,252,252,251,251,251,251,252,252,251,252,252,253,253,253,253,253,253,253,253,255,251,251,251,251,251,250,250,251,251,250,250,251,251,251,251,251,251,251,251,251,251,251,251,252,252,255,255,255,255,255,255,255,255
255,255,255,255,255,255,255,255,255,255,255,255,255,255,255,255,255,255,255,255,255,255,255,255,255,255,255,255,255,255,255,255,255,255,255,255,255,255,255,255,255,255,255,255,255,255,255,255,255,255,255,255,255,255,255,255,255,255,255,255,255,255,255,255,255,255,255,255,255,255,255,255,255,255,255,255,255,255,255,255,255,255,255,255,255,255,255,255,255,255,255,255,255,255,255,255,255,255,255,255,255,255,255,255,255,255,255,255,255,255,255,255,255,255,255,255,255,255,255,255,255,255,255,255,255,255,255,255,255,255,255,255,255,255,255,255,255,255,255,255,255,255,255,255,255,255,255,255,255,255,255,255,255,255,255,255,255,255,255,255,255,255,255,255,255,255,255,255,255,255,255,255,255,255,255,255,255,255,255,255,255,255,255,255,255,255,255,255,255,255,255,255,255,255,255,255,255,255,255,255,255,255,255,255,255,255,255,255,255,255,255,255,255,255,255,255,255,255,255,255,255,255,255,255,255,255,255,255,255,255,255,255,255,255,255,255,255,255,255,255,255,255,255,255,255,255,255,255,255,255,255,255,255,255,255,255,255,255,255,255,255,255,255,255,255,255,255,255,255,173,173,173,173,172,172,172,172,172,172,172,171,171,172,172,172,172,172,172,172,172,172,172,172,172,172,171,171,171,171,171,171,171,170,170,170,170,169,169,169,169,168,168,168,168,168,168,160,159,159,158,158,158,157,157,157,157,157,156,156,156,156,155,155,154,154,154,154,154,154,153,153,153,153,153,153,153,153,153,153,153,153,153,153,153,153,153,153,153,153,153,153,153,154,154,154,154,154,154,154,154,154,154,154,154,154,154,154,154,154,154,154,155,155,155,155,155,154,154,154,154,154,154,154,154,154,154,154,154,154,154,154,154,154,154,154,154,154,154,154,154,154,154,154,154,154,154,154,154,154,154,154,154,154,154,154,154,154,154,154,154,154,154,154,153,153,153,153,153,153,255,255,255,148,148,148,147,147,146,146,145,145,145,145,145,145,145,144,144,144,144,255,255,255,255,255,140,140,139,139,139,139,139,139,140,140,140,141,141,140,140,140,140,139,139,139,139,139,139,138,138,138,138,138,138,138,138,138,138,138,138,138,138,138,138,137,137,138,138,134,135,135,135,135,135,135,135,135,135,135,134,135,135,135,136,136,136,136,136,136,136,136,136,136,136,136,137,136,136,136,137,137,137,137,255,255,255,255,255,255,252,252,252,252,252,252,252,252,252,252,252,252,252,252,252,252,252,252,252,252,252,252,252,252,252,252,252,252,252,252,252,252,252,252,252,252,252,252,252,252,251,251,251,251,251,251,251,251,252,252,253,253,254,254,253,253,253,253,251,251,250,251,250,250,251,251,251,250,250,251,251,251,251,251,251,251,251,251,251,251,253,253,252,255,255,255,255,255,255,255,255
255,255,255,255,255,255,255,255,255,255,255,255,255,255,255,255,255,255,255,255,255,255,255,255,255,255,255,255,255,255,255,255,255,255,255,255,255,255,255,255,255,255,255,255,255,255,255,255,255,255,255,255,255,255,255,255,255,255,255,255,255,255,255,255,255,255,255,255,255,255,255,255,255,255,255,255,255,255,255,255,255,255,255,255,255,255,255,255,255,255,255,255,255,255,255,255,255,255,255,255,255,255,255,255,255,255,255,255,255,255,255,255,255,255,255,255,255,255,255,255,255,255,255,255,255,255,255,255,255,255,255,255,255,255,255,255,255,255,255,255,255,255,255,255,255,255,255,255,255,255,255,255,255,255,255,255,255,255,255,255,255,255,255,255,255,255,255,255,255,255,255,255,255,255,255,255,255,255,255,255,255,255,255,255,255,255,255,255,255,255,255,255,255,255,255,255,255,255,255,255,255,255,255,255,255,255,255,255,255,255,255,255,255,255,255,255,255,255,255,255,255,255,255,255,255,255,255,255,255,255,255,255,255,255,255,255,255,255,255,255,255,255,255,255,255,255,255,255,255,255,255,255,255,255,255,255,255,255,255,255,255,255,255,255,255,255,255,255,255,173,173,173,173,172,172,172,172,172,171,171,171,171,171,171,171,172,172,172,172,172,172,172,172,172,171,171,171,171,171,171,171,170,170,170,170,170,169,169,169,167,167,167,167,167,167,160,160,160,159,158,158,158,157,157,157,157,157,157,156,156,156,155,155,154,154,154,154,154,154,153,153,153,153,153,153,153,153,153,153,153,153,153,153,153,153,153,153,153,153,153,153,153,154,154,154,154,154,154,154,154,154,154,154,154,154,154,154,154,154,154,155,155,155,155,155,154,154,154,154,154,154,154,154,154,154,154,154,154,154,154,154,154,154,154,154,154,154,154,154,154,154,154,154,154,154,154,154,154,154,154,154,154,154,154,154,154,154,154,154,154,154,154,154,153,153,153,153,153,153,255,255,255,148,148,147,146,146,146,145,145,145,145,145,145,145,145,144,144,144,255,255,255,255,255,140,140,139,139,139,139,139,139,139,140,140,140,140,140,140,140,140,139,139,139,139,139,138,138,138,138,138,138,138,138,138,138,138,138,138,137,137,137,138,138,137,137,137,134,134,134,135,135,135,135,135,135,135,135,135,134,135,135,135,135,135,136,136,136,136,136,136,136,136,136,136,136,136,136,136,136,136,137,137,137,137,138,138,138,138,252,252,252,252,252,252,252,252,252,252,252,252,252,252,252,252,252,252,252,252,252,252,252,252,252,252,252,252,252,252,252,252,252,252,252,252,252,252,252,252,251,251,251,251,251,251,251,251,252,252,253,253,253,253,253,253,253,253,251,251,251,251,250,251,251,251,251,251,251,251,251,251,251,251,251,253,253,253,253,253,253,253,253,255,255,255,255,255,255,255,255
255,255,255,255,255,255,255,255,255,255,255,255,255,255,255,255,255,255,255,255,255,255,255,255,255,255,255,255,255,255,255,255,255,255,255,255,255,255,255,255,255,255,255,255,255,255,255,255,255,255,255,255,255,255,255,255,255,255,255,255,255,255,255,255,255,255,255,255,255,255,255,255,255,255,255,255,255,255,255,255,255,255,255,255,255,255,255,255,255,255,255,255,255,255,255,255,255,255,255,255,255,255,255,255,255,255,255,255,255,255,255,255,255,255,255,255,255,255,255,255,255,255,255,255,255,255,255,255,255,255,255,255,255,255,255,255,255,255,255,255,255,255,255,255,255,255,255,255,255,255,255,255,255,255,255,255,255,255,255,255,255,255,255,255,255,255,255,255,255,255,255,255,255,255,255,255,255,255,255,255,255,255,255,255,255,255,255,255,255,255,255,255,255,255,255,255,255,255,255,255,255,255,255,255,255,255,255,255,255,255,255,255,255,255,255,255,255,255,255,255,255,255,255,255,255,255,255,255,255,255,255,255,255,255,255,255,255,255,255,255,255,255,255,255,255,255,255,255,255,255,255,255,255,255,255,255,255,255,255,255,255,255,255,255,255,255,255,255,255,173,172,173,172,172,172,172,171,171,171,171,171,171,171,171,171,171,172,172,172,172,172,172,172,172,171,171,171,171,171,171,171,170,170,170,170,170,169,169,167,167,167,167,167,167,167,160,160,160,159,158,158,158,158,157,157,157,157,157,156,156,156,155,155,155,154,154,154,154,154,154,153,153,153,153,153,153,153,153,153,153,153,153,153,153,153,153,153,153,153,153,153,154,154,154,154,154,154,154,154,154,154,154,154,154,154,154,154,154,154,154,155,155,155,155,154,154,154,153,153,153,154,154,154,154,154,154,154,154,154,154,154,154,154,154,154,154,154,154,154,154,154,154,154,154,154,154,154,154,154,154,154,154,154,154,154,154,154,154,154,154,154,153,153,153,153,153,152,255,152,255,255,255,147,147,147,146,146,145,145,145,145,145,145,144,144,144,144,144,144,255,255,255,255,255,140,139,139,139,139,139,139,139,139,140,140,140,140,140,140,140,139,139,139,139,138,138,138,138,138,138,137,137,137,137,137,137,137,137,137,137,137,137,137,137,137,135,135,255,134,134,135,135,135,135,135,135,135,135,134,134,134,135,135,135,135,135,136,136,136,136,136,136,136,136,136,136,136,136,136,136,136,136,136,137,137,137,139,139,138,138,252,252,252,252,252,252,252,252,252,252,252,252,252,252,252,252,252,252,252,252,252,252,252,252,252,252,252,252,252,252,252,252,252,252,252,252,252,252,252,252,251,251,251,251,251,251,251,252,252,252,253,253,253,253,253,253,251,251,251,251,250,250,251,251,251,251,251,251,251,251,251,251,253,253,254,253,253,253,253,253,253,253,255,255,255,255,255,255,255,255
255,255,255,255,255,255,255,255,255,255,255,255,255,255,255,255,255,255,255,255,255,255,255,255,255,255,255,255,255,255,255,255,255,255,255,255,255,255,255,255,255,255,255,255,255,255,255,255,255,255,255,255,255,255,255,255,255,255,255,255,255,255,255,255,255,255,255,255,255,255,255,255,255,255,255,255,255,255,255,255,255,255,255,255,255,255,255,255,255,255,255,255,255,255,255,255,255,255,255,255,255,255,255,255,255,255,255,255,255,255,255,255,255,255,255,255,255,255,255,255,255,255,255,255,255,255,255,255,255,255,255,255,255,255,255,255,255,255,255,255,255,255,255,255,255,255,255,255,255,255,255,255,255,255,255,255,255,255,255,255,255,255,255,255,255,255,255,255,255,255,255,255,255,255,255,255,255,255,255,255,255,255,255,255,255,255,255,255,255,255,255,255,255,255,255,255,255,255,255,255,255,255,255,255,255,255,255,255,255,255,255,255,255,255,255,255,255,255,255,255,255,255,255,255,255,255,255,255,255,255,255,255,255,255,255,255,255,255,255,255,255,255,255,255,255,255,255,255,255,255,255,255,255,255,255,255,255,255,255,255,255,255,255,255,255,255,255,255,255,255,255,173,172,172,172,172,171,171,171,171,171,171,171,171,171,171,171,172,172,172,172,172,172,172,171,171,171,171,171,171,171,170,170,170,170,170,170,167,167,167,167,167,167,167,167,160,160,160,160,158,158,158,158,157,157,157,157,157,156,156,156,155,155,155,154,154,154,154,154,154,154,153,153,153,153,153,153,153,153,153,153,153,153,153,153,153,153,153,154,154,154,154,154,154,154,154,154,154,154,154,154,154,154,154,154,154,154,154,154,154,155,154,154,154,154,154,153,153,153,153,153,154,154,154,154,154,154,154,154,154,154,154,154,154,154,154,154,154,154,154,154,154,154,154,154,154,154,154,154,154,154,154,154,154,154,154,154,154,154,153,153,153,153,153,153,153,153,152,255,255,147,147,147,146,146,146,145,145,145,145,145,145,145,144,144,144,144,144,143,255,255,255,255,255,140,139,139,139,139,139,139,139,139,140,140,140,140,140,140,140,139,139,139,138,138,138,138,137,137,137,137,137,137,137,137,137,137,137,137,137,137,136,136,136,136,135,135,134,134,134,134,134,134,134,134,134,134,134,134,134,134,135,135,135,135,135,135,136,136,136,136,136,136,136,136,136,136,136,136,136,136,136,136,137,137,137,138,139,139,139,252,252,252,252,252,252,252,252,252,252,252,252,252,252,252,252,252,252,252,252,252,252,252,252,252,252,252,252,252,252,252,252,252,252,252,252,252,252,252,251,251,251,251,251,251,251,252,252,252,252,252,253,253,252,253,253,251,251,251,251,251,250,251,251,251,251,251,251,252,253,253,253,253,253,254,253,253,253,253,253,253,253,255,255,255,255,255,255,255,255
255,255,255,255,255,255,255,255,255,255,255,255,255,255,255,255,255,255,255,255,255,255,255,255,255,255,255,255,255,255,255,255,255,255,255,255,255,255,255,255,255,255,255,255,255,255,255,255,255,255,255,255,255,255,255,255,255,255,255,255,255,255,255,255,255,255,255,255,255,255,255,255,255,255,255,255,255,255,255,255,255,255,255,255,255,255,255,255,255,255,255,255,255,255,255,255,255,255,255,255,255,255,255,255,255,255,255,255,255,255,255,255,255,255,255,255,255,255,255,255,255,255,255,255,255,255,255,255,255,255,255,255,255,255,255,255,255,255,255,255,255,255,255,255,255,255,255,255,255,255,255,255,255,255,255,255,255,255,255,255,255,255,255,255,255,255,255,255,255,255,255,255,255,255,255,255,255,255,255,255,255,255,255,255,255,255,255,255,255,255,255,255,255,255,255,255,255,255,255,255,255,255,255,255,255,255,255,255,255,255,255,255,255,255,255,255,255,255,255,255,255,255,255,255,255,255,255,255,255,255,255,255,255,255,255,255,255,255,255,255,255,255,255,255,255,255,255,255,255,255,255,255,255,255,255,255,255,255,255,255,255,255,255,255,255,255,255,255,255,255,255,255,172,172,172,172,171,171,171,171,171,171,171,171,171,171,171,171,171,172,172,172,172,171,171,171,171,171,171,171,171,171,170,170,170,170,170,167,167,167,167,167,167,167,167,255,160,160,160,159,158,158,158,158,157,157,157,157,157,156,156,155,155,155,155,154,154,154,154,154,154,153,153,153,153,153,153,153,153,153,153,153,153,153,153,153,153,154,154,154,154,154,154,154,154,154,154,154,154,154,154,154,154,154,154,154,154,154,154,154,154,154,154,154,153,153,153,153,153,153,153,153,153,153,153,154,154,154,154,154,154,154,154,154,154,154,154,154,154,154,154,154,154,154,154,154,154,154,154,154,154,154,154,154,154,153,154,153,153,153,153,153,153,153,153,152,152,152,152,147,147,147,146,146,146,146,145,145,145,145,145,144,144,144,144,144,143,255,255,255,255,255,255,255,139,139,139,139,139,139,139,139,139,139,140,140,140,140,139,139,139,139,138,138,138,138,137,137,137,137,137,137,137,137,137,137,137,137,137,137,137,137,136,136,135,135,134,134,134,134,134,133,133,133,133,133,133,133,134,134,134,134,134,135,135,135,135,135,135,136,136,136,136,136,135,135,135,135,135,136,136,136,136,137,137,137,138,139,139,139,139,253,252,252,252,252,252,252,252,252,252,252,252,252,252,252,252,252,252,252,252,252,252,252,252,252,252,252,252,252,252,252,252,252,252,252,252,252,252,251,252,251,251,251,251,251,251,252,252,252,252,253,253,253,253,253,255,251,251,251,251,251,251,251,251,251,251,251,253,253,253,253,253,253,253,253,253,253,253,253,253,253,255,255,255,255,255,255,255,255
255,255,255,255,255,255,255,255,255,255,255,255,255,255,255,255,255,255,255,255,255,255,255,255,255,255,255,255,255,255,255,255,255,255,255,255,255,255,255,255,255,255,255,255,255,255,255,255,255,255,255,255,255,255,255,255,255,255,255,255,255,255,255,255,255,255,255,255,255,255,255,255,255,255,255,255,255,255,255,255,255,255,255,255,255,255,255,255,255,255,255,255,255,255,255,255,255,255,255,255,255,255,255,255,255,255,255,255,255,255,255,255,255,255,255,255,255,255,255,255,255,255,255,255,255,255,255,255,255,255,255,255,255,255,255,255,255,255,255,255,255,255,255,255,255,255,255,255,255,255,255,255,255,255,255,255,255,255,255,255,255,255,255,255,255,255,255,255,255,255,255,255,255,255,255,255,255,255,255,255,255,255,255,255,255,255,255,255,255,255,255,255,255,255,255,255,255,255,255,255,255,255,255,255,255,255,255,255,255,255,255,255,255,255,255,255,255,255,255,255,255,255,255,255,255,255,255,255,255,255,255,255,255,255,255,255,255,255,255,255,255,255,255,255,255,255,255,255,255,255,255,255,255,255,255,255,255,255,255,255,255,255,255,255,255,255,255,255,255,255,255,255,255,172,172,171,171,171,171,171,171,171,171,171,171,171,171,171,171,171,172,171,171,171,171,171,171,171,171,171,171,170,170,170,170,170,167,167,167,167,167,167,166,167,255,255,255,160,160,159,159,158,158,158,157,157,157,157,157,157,156,156,155,155,155,155,154,154,154,154,154,154,153,153,153,153,153,153,153,153,153,153,153,153,153,153,154,154,154,154,154,154,154,154,154,154,154,154,154,154,154,154,154,154,154,154,154,154,154,154,154,154,154,153,153,153,153,153,153,153,153,153,153,153,153,153,154,154,154,154,154,154,154,154,154,154,154,154,154,154,154,154,154,153,154,153,153,154,153,154,153,154,154,154,153,153,153,153,153,153,153,153,153,153,152,152,152,152,152,147,147,146,146,146,146,145,145,145,145,144,144,144,144,144,144,144,143,255,255,255,255,255,255,255,139,139,139,139,138,138,138,139,139,139,139,139,139,139,139,139,139,139,138,138,138,138,137,137,137,137,137,137,137,137,137,137,137,137,137,136,136,136,135,135,134,134,134,134,134,133,133,133,133,133,133,133,133,133,134,134,134,134,134,134,134,135,135,135,135,135,135,136,136,136,135,135,135,135,135,135,136,136,136,136,137,137,137,138,138,139,139,139,252,252,252,252,252,252,252,252,252,252,252,252,252,252,252,252,252,252,252,252,252,252,252,252,252,252,252,252,252,252,252,252,252,252,252,252,252,252,252,252,252,251,251,251,251,252,252,251,252,253,253,253,253,253,255,255,251,251,251,250,251,251,251,251,251,254,253,253,253,253,253,253,254,253,253,253,253,253,253,253,255,255,255,255,255,255,255,255
255,255,255,255,255,255,255,255,255,255,255,255,255,255,255,255,255,255,255,255,255,255,255,255,255,255,255,255,255,255,255,255,255,255,255,255,255,255,255,255,255,255,255,255,255,255,255,255,255,255,255,255,255,255,255,255,255,255,255,255,255,255,255,255,255,255,255,255,255,255,255,255,255,255,255,255,255,255,255,255,255,255,255,255,255,255,255,255,255,255,255,255,255,255,255,255,255,255,255,255,255,255,255,255,255,255,255,255,255,255,255,255,255,255,255,255,255,255,255,255,255,255,255,255,255,255,255,255,255,255,255,255,255,255,255,255,255,255,255,255,255,255,255,255,255,255,255,255,255,255,255,255,255,255,255,255,255,255,255,255,255,255,255,255,255,255,255,255,255,255,255,255,255,255,255,255,255,255,255,255,255,255,255,255,255,255,255,255,255,255,255,255,255,255,255,255,255,255,255,255,255,255,255,255,255,255,255,255,255,255,255,255,255,255,255,255,255,255,255,255,255,255,255,255,255,255,255,255,255,255,255,255,255,255,255,255,255,255,255,255,255,255,255,255,255,255,255,255,255,255,255,255,255,255,255,255,255,255,255,255,255,255,255,255,255,255,255,255,255,255,255,255,255,255,255,171,171,171,171,171,171,171,171,171,171,171,171,171,171,171,171,171,171,171,171,171,171,171,171,171,171,170,170,170,170,170,170,167,167,167,167,166,255,255,255,255,255,160,160,160,160,159,158,158,158,157,157,157,157,157,156,156,155,155,155,155,154,154,154,154,154,154,153,153,153,153,153,153,153,153,153,153,153,154,154,154,154,154,154,154,154,154,154,154,154,154,154,154,154,154,154,154,154,154,154,154,154,154,154,154,154,153,153,153,153,153,153,153,153,153,153,153,153,153,153,153,153,154,154,154,154,154,154,154,154,154,154,154,154,154,153,154,154,153,153,153,153,154,153,153,153,153,153,154,153,153,153,153,153,153,153,153,152,152,152,152,152,152,152,146,146,146,146,146,146,145,145,145,144,144,144,144,144,144,144,143,143,143,255,255,255,255,255,139,139,139,139,139,138,138,138,139,139,139,139,139,139,139,139,139,139,138,138,138,137,137,137,137,137,137,137,137,137,137,137,137,137,137,136,136,136,135,135,134,134,134,134,134,133,133,133,133,133,133,133,133,133,133,134,134,134,134,134,134,134,135,135,135,134,135,135,134,134,134,134,134,134,134,134,134,135,136,136,137,137,137,138,139,139,139,139,140,140,252,252,252,252,252,252,252,252,252,252,252,252,252,252,252,252,252,252,252,252,252,252,252,252,252,252,252,252,252,252,252,252,252,252,252,252,252,252,252,252,251,252,251,252,252,252,251,251,255,255,255,255,255,255,255,251,251,251,251,251,251,251,251,253,254,253,253,253,253,253,253,253,253,253,253,253,253,253,253,255,255,255,255,255,255,255,255
255,255,255,255,255,255,255,255,255,255,255,255,255,255,255,255,255,255,255,255,255,255,255,255,255,255,255,255,255,255,255,255,255,255,255,255,255,255,255,255,255,255,255,255,255,255,255,255,255,255,255,255,255,255,255,255,255,255,255,255,255,255,255,255,255,255,255,255,255,255,255,255,255,255,255,255,255,255,255,255,255,255,255,255,255,255,255,255,255,255,255,255,255,255,255,255,255,255,255,255,255,255,255,255,255,255,255,255,255,255,255,255,255,255,255,255,255,255,255,255,255,255,255,255,255,255,255,255,255,255,255,255,255,255,255,255,255,255,255,255,255,255,255,255,255,255,255,255,255,255,255,255,255,255,255,255,255,255,255,255,255,255,255,255,255,255,255,255,255,255,255,255,255,255,255,255,255,255,255,255,255,255,255,255,255,255,255,255,255,255,255,255,255,255,255,255,255,255,255,255,255,255,255,255,255,255,255,255,255,255,255,255,255,255,255,255,255,255,255,255,255,255,255,255,255,255,255,255,255,255,255,255,255,255,255,255,255,255,255,255,255,255,255,255,255,255,255,255,255,255,255,255,255,255,255,255,255,255,255,255,255,255,255,255,255,255,255,255,255,255,255,255,255,255,255,255,171,171,171,171,171,171,171,171,171,171,171,171,171,171,171,171,171,171,171,171,171,171,171,171,170,170,170,170,170,170,169,167,167,166,167,255,255,255,255,255,255,161,160,160,160,159,158,158,158,158,157,157,157,157,157,156,156,156,155,155,155,154,154,154,154,154,154,154,154,154,153,153,153,153,153,153,153,154,154,154,154,154,154,154,154,154,154,154,154,154,154,154,154,154,154,154,154,154,154,154,154,154,154,154,154,153,153,153,153,153,153,153,153,153,153,153,153,153,153,153,153,153,153,153,154,153,154,153,153,154,154,154,154,153,153,153,153,153,153,153,153,153,153,153,153,154,153,153,153,153,153,153,153,153,153,153,152,152,152,152,152,152,152,147,146,146,146,146,145,145,145,145,144,144,144,144,144,144,143,143,143,143,255,255,139,255,255,139,139,139,139,138,138,138,138,139,139,139,139,139,139,139,139,139,139,138,138,137,137,137,137,137,137,137,137,137,137,136,136,136,136,136,136,136,135,135,134,134,134,134,134,133,133,133,133,133,133,133,133,133,133,133,134,134,134,134,134,134,134,134,134,134,134,133,133,134,133,134,134,134,134,134,134,134,135,136,136,137,137,137,138,139,139,139,139,140,140,139,252,252,252,252,252,252,252,252,252,252,252,252,252,252,252,252,252,252,252,252,252,252,252,252,252,252,252,252,252,252,252,252,252,252,252,252,252,252,252,252,252,251,252,252,252,251,251,255,255,255,255,255,255,255,251,251,251,251,251,251,251,251,251,254,254,254,254,254,253,253,254,253,253,253,253,253,253,253,255,255,255,255,255,255,255,255
255,255,255,255,255,255,255,255,255,255,255,255,255,255,255,255,255,255,255,255,255,255,255,255,255,255,255,255,255,255,255,255,255,255,255,255,255,255,255,255,255,255,255,255,255,255,255,255,255,255,255,255,255,255,255,255,255,255,255,255,255,255,255,255,255,255,255,255,255,255,255,255,255,255,255,255,255,255,255,255,255,255,255,255,255,255,255,255,255,255,255,255,255,255,255,255,255,255,255,255,255,255,255,255,255,255,255,255,255,255,255,255,255,255,255,255,255,255,255,255,255,255,255,255,255,255,255,255,255,255,255,255,255,255,255,255,255,255,255,255,255,255,255,255,255,255,255,255,255,255,255,255,255,255,255,255,255,255,255,255,255,255,255,255,255,255,255,255,255,255,255,255,255,255,255,255,255,255,255,255,255,255,255,255,255,255,255,255,255,255,255,255,255,255,255,255,255,255,255,255,255,255,255,255,255,255,255,255,255,255,255,255,255,255,255,255,255,255,255,255,255,255,255,255,255,255,255,255,255,255,255,255,255,255,255,255,255,255,255,255,255,255,255,255,255,255,255,255,255,255,255,255,255,255,255,255,255,255,255,255,255,255,255,255,255,255,255,255,255,255,255,255,255,255,255,255,255,255,171,171,171,171,171,171,171,171,171,171,171,171,171,171,171,171,171,171,171,171,171,170,170,170,170,170,169,169,169,169,166,166,166,255,255,255,255,255,255,255,160,160,160,159,159,158,158,158,157,157,157,157,157,156,156,156,156,155,155,155,154,154,154,154,154,154,154,154,154,154,153,153,153,154,154,154,154,154,154,154,154,154,154,154,154,154,154,154,154,154,154,154,154,154,154,154,154,154,154,154,153,153,153,152,153,152,153,153,153,153,153,153,153,153,153,153,153,153,153,153,153,153,153,153,153,153,153,153,153,153,153,153,153,153,153,153,153,153,153,153,153,153,153,153,153,153,153,153,153,153,153,153,153,153,152,152,152,152,152,152,152,146,146,146,146,145,145,145,145,144,144,144,144,144,144,143,143,143,143,143,255,255,139,139,139,139,139,139,139,138,138,138,138,138,139,139,139,139,139,139,139,139,137,137,137,137,137,137,137,137,137,137,136,136,136,136,136,136,136,136,136,136,135,135,134,134,134,133,133,133,133,133,132,133,133,133,133,133,133,133,134,134,134,134,134,134,134,134,134,134,133,133,133,133,133,134,134,134,134,134,134,134,135,136,136,137,137,137,138,139,139,139,139,139,139,139,252,252,252,252,252,252,252,252,252,252,252,252,252,252,252,252,252,252,252,252,252,252,252,252,252,252,252,252,252,252,252,252,252,252,252,252,252,252,252,252,252,252,252,251,251,251,251,255,255,255,255,255,255,255,255,251,251,251,251,251,250,250,250,254,254,254,254,254,254,253,254,253,253,253,253,253,253,253,255,255,255,255,255,255,255,255
255,255,255,255,255,255,255,255,255,255,255,255,255,255,255,255,255,255,255,255,255,255,255,255,255,255,255,255,255,255,255,255,255,255,255,255,255,255,255,255,255,255,255,255,255,255,255,255,255,255,255,255,255,255,255,255,255,255,255,255,255,255,255,255,255,255,255,255,255,255,255,255,255,255,255,255,255,255,255,255,255,255,255,255,255,255,255,255,255,255,255,255,255,255,255,255,255,255,255,255,255,255,255,255,255,255,255,255,255,255,255,255,255,255,255,255,255,255,255,255,255,255,255,255,255,255,255,255,255,255,255,255,255,255,255,255,255,255,255,255,255,255,255,255,255,255,255,255,255,255,255,255,255,255,255,255,255,255,255,255,255,255,255,255,255,255,255,255,255,255,255,255,255,255,255,255,255,255,255,255,255,255,255,255,255,255,255,255,255,255,255,255,255,255,255,255,255,255,255,255,255,255,255,255,255,255,255,255,255,255,255,255,255,255,255,255,255,255,255,255,255,255,255,255,255,255,255,255,255,255,255,255,255,255,255,255,255,255,255,255,255,255,255,255,255,255,255,255,255,255,255,255,255,255,255,255,255,255,255,255,255,255,255,255,255,255,255,255,255,255,255,255,255,255,255,255,255,255,171,171,171,171,171,171,171,171,171,171,171,171,171,171,171,171,171,170,171,171,171,170,170,170,170,169,169,169,169,168,168,255,255,255,255,255,255,255,255,160,160,160,160,159,159,158,158,158,157,157,157,157,157,157,156,156,156,155,155,155,155,154,154,154,154,154,154,154,154,154,154,154,154,154,154,154,154,154,154,154,154,154,154,154,154,154,154,154,154,154,154,154,154,154,154,154,154,154,154,153,153,153,153,152,152,152,152,153,153,153,153,153,153,153,153,153,153,153,153,153,153,153,153,153,153,153,153,153,153,153,153,153,153,153,153,153,153,153,153,153,153,153,153,153,153,153,153,153,153,153,153,153,153,152,152,152,152,152,152,146,146,146,146,146,146,145,145,145,144,144,144,144,144,144,144,143,143,143,143,143,143,255,139,139,139,138,138,138,138,138,138,138,138,138,139,139,139,139,139,139,138,137,137,137,137,137,137,137,137,137,137,136,136,136,136,136,136,136,136,136,136,136,135,134,134,133,133,133,133,133,132,132,132,132,133,133,133,133,133,133,134,134,134,134,134,134,134,134,134,133,133,133,133,133,133,133,133,134,134,134,134,134,136,136,136,137,137,137,138,138,138,138,139,140,140,140,140,252,252,252,252,252,252,252,252,252,252,252,252,252,252,252,252,252,252,252,252,252,252,252,252,252,252,252,252,252,252,252,252,252,252,252,252,252,252,252,252,251,252,251,251,251,251,255,255,255,255,255,255,255,255,251,251,251,251,250,250,250,250,254,254,254,254,254,254,253,253,253,253,253,253,253,253,253,255,255,255,255,255,255,255,255
255,255,255,255,255,255,255,255,255,255,255,255,255,255,255,255,255,255,255,255,255,255,255,255,255,255,255,255,255,255,255,255,255,255,255,255,255,255,255,255,255,255,255,255,255,255,255,255,255,255,255,255,255,255,255,255,255,255,255,255,255,255,255,255,255,255,255,255,255,255,255,255,255,255,255,255,255,255,255,255,255,255,255,255,255,255,255,255,255,255,255,255,255,255,255,255,255,255,255,255,255,255,255,255,255,255,255,255,255,255,255,255,255,255,255,255,255,255,255,255,255,255,255,255,255,255,255,255,255,255,255,255,255,255,255,255,255,255,255,255,255,255,255,255,255,255,255,255,255,255,255,255,255,255,255,255,255,255,255,255,255,255,255,255,255,255,255,255,255,255,255,255,255,255,255,255,255,255,255,255,255,255,255,255,255,255,255,255,255,255,255,255,255,255,255,255,255,255,255,255,255,255,255,255,255,255,255,255,255,255,255,255,255,255,255,255,255,255,255,255,255,255,255,255,255,255,255,255,255,255,255,255,255,255,255,255,255,255,255,255,255,255,255,255,255,255,255,255,255,255,255,255,255,255,255,255,255,255,255,255,255,255,255,255,255,255,255,255,255,255,255,255,255,255,255,255,255,255,255,171,171,171,171,171,171,171,171,171,171,171,170,170,170,170,170,170,170,170,170,170,170,170,169,169,169,168,168,168,168,165,165,165,255,255,255,255,255,161,161,160,160,159,159,158,158,158,157,157,157,157,157,157,156,156,156,156,155,155,155,155,155,155,154,154,154,154,154,154,154,154,154,154,154,154,154,154,154,154,154,154,154,154,154,154,154,154,154,154,154,154,154,154,154,154,154,154,153,153,153,153,153,152,152,152,153,153,153,153,153,153,153,153,153,153,153,153,153,153,153,153,153,153,153,153,153,153,153,153,153,153,153,153,153,153,153,153,153,153,153,153,153,153,153,153,153,153,153,153,152,152,152,152,152,151,151,151,255,146,146,146,146,146,145,145,145,144,144,144,144,144,144,144,144,143,143,143,143,143,143,139,139,138,138,138,138,138,138,138,138,137,138,138,139,139,139,139,139,138,137,137,137,137,137,137,137,137,137,136,136,136,136,136,136,136,136,135,135,136,134,134,134,134,133,133,133,133,133,132,132,132,132,132,132,133,133,133,133,133,133,134,134,134,134,134,134,134,133,133,133,132,132,133,133,133,133,133,134,134,134,134,136,136,136,137,137,137,137,138,138,138,139,140,140,140,140,252,252,252,252,252,252,252,252,252,252,252,252,252,252,252,252,252,252,252,252,252,252,252,252,252,252,252,252,252,252,252,252,252,252,252,252,252,252,252,252,251,252,251,251,251,251,255,255,255,255,255,255,255,255,255,251,251,251,250,250,250,250,254,254,254,254,254,254,254,253,253,253,253,253,253,253,253,255,255,255,255,255,255,255,255
255,255,255,255,255,255,255,255,255,255,255,255,255,255,255,255,255,255,255,255,255,255,255,255,255,255,255,255,255,255,255,255,255,255,255,255,255,255,255,255,255,255,255,255,255,255,255,255,255,255,255,255,255,255,255,255,255,255,255,255,255,255,255,255,255,255,255,255,255,255,255,255,255,255,255,255,255,255,255,255,255,255,255,255,255,255,255,255,255,255,255,255,255,255,255,255,255,255,255,255,255,255,255,255,255,255,255,255,255,255,255,255,255,255,255,255,255,255,255,255,255,255,255,255,255,255,255,255,255,255,255,255,255,255,255,255,255,255,255,255,255,255,255,255,255,255,255,255,255,255,255,255,255,255,255,255,255,255,255,255,255,255,255,255,255,255,255,255,255,255,255,255,255,255,255,255,255,255,255,255,255,255,255,255,255,255,255,255,255,255,255,255,255,255,255,255,255,255,255,255,255,255,255,255,255,255,255,255,255,255,255,255,255,255,255,255,255,255,255,255,255,255,255,255,255,255,255,255,255,255,255,255,255,255,255,255,255,255,255,255,255,255,255,255,255,255,255,255,255,255,255,255,255,255,255,255,255,255,255,255,255,255,255,255,255,255,255,255,255,255,255,255,255,255,255,255,255,172,172,172,171,171,171,255,255,171,171,171,170,170,170,170,170,170,170,170,170,170,170,170,170,169,169,169,169,168,168,168,168,255,164,164,164,164,255,255,255,161,161,160,160,159,159,158,158,158,157,157,157,157,157,157,157,156,156,156,156,155,155,155,155,155,155,154,154,154,154,154,154,154,154,154,154,154,154,154,154,154,154,154,154,154,154,154,154,154,154,154,154,154,154,154,154,154,153,153,153,153,153,152,152,152,152,152,153,152,153,153,153,153,153,153,153,153,153,153,153,153,153,153,153,153,153,153,153,153,153,153,153,153,153,153,153,153,153,153,153,153,153,153,153,153,153,153,153,153,152,152,152,152,152,152,151,151,151,255,146,146,146,146,146,145,145,145,144,144,144,144,144,144,144,143,143,143,143,143,143,143,139,139,139,138,138,138,138,138,138,138,137,137,138,138,138,138,138,138,138,138,137,137,137,137,137,136,136,136,136,135,135,136,135,135,135,135,135,135,135,134,134,134,134,133,133,133,133,132,132,132,132,132,132,132,132,133,133,133,133,133,133,134,134,134,134,134,134,134,134,133,132,132,132,132,132,132,133,133,134,134,134,134,135,136,136,137,137,137,137,138,138,138,138,140,140,140,140,252,252,252,252,252,252,252,252,252,252,252,252,252,252,252,252,252,252,252,252,252,252,252,252,252,252,252,252,252,251,252,252,252,252,252,252,252,252,252,251,251,251,251,251,251,251,251,255,255,255,255,255,255,255,255,251,251,251,250,250,250,250,254,254,254,254,254,253,253,253,253,253,253,253,253,253,253,255,255,255,255,255,255,255,255
255,255,255,255,255,255,255,255,255,255,255,255,255,255,255,255,255,255,255,255,255,255,255,255,255,255,255,255,255,255,255,255,255,255,255,255,255,255,255,255,255,255,255,255,255,255,255,255,255,255,255,255,255,255,255,255,255,255,255,255,255,255,255,255,255,255,255,255,255,255,255,255,255,255,255,255,255,255,255,255,255,255,255,255,255,255,255,255,255,255,255,255,255,255,255,255,255,255,255,255,255,255,255,255,255,255,255,255,255,255,255,255,255,255,255,255,255,255,255,255,255,255,255,255,255,255,255,255,255,255,255,255,255,255,255,255,255,255,255,255,255,255,255,255,255,255,255,255,255,255,255,255,255,255,255,255,255,255,255,255,255,255,255,255,255,255,255,255,255,255,255,255,255,255,255,255,255,255,255,255,255,255,255,255,255,255,255,255,255,255,255,255,255,255,255,255,255,255,255,255,255,255,255,255,255,255,255,255,255,255,255,255,255,255,255,255,255,255,255,255,255,255,255,255,255,255,255,255,255,255,255,255,255,255,255,255,255,255,255,255,255,255,255,255,255,255,255,255,255,255,255,255,255,255,255,255,255,255,255,255,255,255,255,255,255,255,255,255,255,255,255,255,255,255,255,255,255,255,172,172,172,255,255,255,255,255,255,255,255,170,170,170,170,170,170,170,170,170,170,170,169,169,169,169,168,168,168,168,168,168,164,164,164,164,255,255,255,255,161,161,160,160,159,159,158,158,158,157,157,157,157,157,156,156,156,156,156,155,155,155,155,155,155,154,154,154,154,154,154,154,154,154,154,154,154,154,154,154,154,154,154,154,154,154,154,154,154,154,154,154,153,152,154,153,152,152,152,152,152,152,152,152,152,152,153,153,153,153,153,153,153,153,153,153,153,153,153,153,153,153,153,153,153,153,153,153,153,153,153,153,153,153,153,153,153,153,153,153,153,153,153,153,153,152,153,152,152,152,152,152,152,151,151,151,151,146,146,146,146,146,145,145,145,144,144,144,144,144,144,143,143,143,143,143,143,143,143,143,139,139,139,138,138,138,138,138,138,137,137,137,138,138,138,138,138,138,138,137,137,137,137,136,136,136,136,135,135,135,135,135,135,135,135,135,135,135,134,134,134,134,133,133,133,132,132,132,132,132,132,132,132,132,132,133,133,133,133,133,133,134,134,134,134,134,133,133,133,132,132,132,132,132,132,132,132,132,134,134,134,134,136,136,136,136,137,137,137,138,138,138,138,140,140,140,141,141,252,252,252,252,252,252,252,252,252,252,252,252,252,252,252,252,252,252,252,252,252,252,252,252,252,252,251,252,251,252,252,252,252,252,252,252,252,252,252,251,251,251,251,251,251,255,255,255,255,255,255,255,255,255,251,251,251,251,250,250,251,253,253,253,253,254,253,253,253,253,253,253,253,253,253,253,255,255,255,255,255,255,255,255
255,255,255,255,255,255,255,255,255,255,255,255,255,255,255,255,255,255,255,255,255,255,255,255,255,255,255,255,255,255,255,255,255,255,255,255,255,255,255,255,255,255,255,255,255,255,255,255,255,255,255,255,255,255,255,255,255,255,255,255,255,255,255,255,255,255,255,255,255,255,255,255,255,255,255,255,255,255,255,255,255,255,255,255,255,255,255,255,255,255,255,255,255,255,255,255,255,255,255,255,255,255,255,255,255,255,255,255,255,255,255,255,255,255,255,255,255,255,255,255,255,255,255,255,255,255,255,255,255,255,255,255,255,255,255,255,255,255,255,255,255,255,255,255,255,255,255,255,255,255,255,255,255,255,255,255,255,255,255,255,255,255,255,255,255,255,255,255,255,255,255,255,255,255,255,255,255,255,255,255,255,255,255,255,255,255,255,255,255,255,255,255,255,255,255,255,255,255,255,255,255,255,255,255,255,255,255,255,255,255,255,255,255,255,255,255,255,255,255,255,255,255,255,255,255,255,255,255,255,255,255,255,255,255,255,255,255,255,255,255,255,255,255,255,255,255,255,255,255,255,255,255,255,255,255,255,255,255,255,255,255,255,255,255,255,255,255,255,255,255,255,255,255,255,255,255,255,255,255,255,255,255,255,255,255,255,255,255,255,255,170,170,170,170,170,170,170,170,170,169,169,169,169,168,168,168,168,168,168,168,164,164,164,164,163,163,255,255,161,161,160,160,159,159,158,158,158,157,157,157,157,157,157,156,156,156,156,156,155,155,155,155,155,154,154,154,154,154,154,154,154,154,154,154,154,154,154,154,154,154,154,154,154,154,154,154,154,154,154,153,152,152,152,152,152,152,152,152,152,152,152,152,152,152,152,152,152,153,153,153,153,153,153,153,153,153,153,153,153,153,153,153,153,153,153,153,153,153,153,153,153,153,153,153,153,153,153,153,153,153,152,152,152,152,152,152,152,152,152,151,151,151,151,151,151,146,146,146,146,145,145,145,144,144,144,144,144,144,143,143,143,143,143,143,143,143,142,143,139,139,139,138,138,138,138,138,137,137,137,137,138,138,138,138,138,138,137,137,137,137,136,136,136,136,135,135,135,135,135,135,135,135,135,134,134,134,134,134,134,133,133,133,133,132,132,132,132,132,132,132,132,132,132,133,133,133,133,133,133,134,134,133,133,133,132,132,132,132,132,132,132,132,132,132,132,132,134,134,134,134,136,136,136,136,137,137,137,137,138,138,138,140,140,140,141,141,252,252,252,252,252,252,252,252,252,252,252,252,252,252,252,252,252,252,252,252,252,252,252,252,251,252,251,252,251,252,252,252,252,252,252,252,252,252,251,251,251,251,251,251,251,251,255,255,255,255,255,255,255,255,251,251,251,250,250,250,250,250,253,253,253,253,253,253,253,253,253,253,253,253,253,253,255,255,255,255,255,255,255,255
255,255,255,255,255,255,255,255,255,255,255,255,255,255,255,255,255,255,255,255,255,255,255,255,255,255,255,255,255,255,255,255,255,255,255,255,255,255,255,255,255,255,255,255,255,255,255,255,255,255,255,255,255,255,255,255,255,255,255,255,255,255,255,255,255,255,255,255,255,255,255,255,255,255,255,255,255,255,255,255,255,255,255,255,255,255,255,255,255,255,255,255,255,255,255,255,255,255,255,255,255,255,255,255,255,255,255,255,255,255,255,255,255,255,255,255,255,255,255,255,255,255,255,255,255,255,255,255,255,255,255,255,255,255,255,255,255,255,255,255,255,255,255,255,255,255,255,255,255,255,255,255,255,255,255,255,255,255,255,255,255,255,255,255,255,255,255,255,255,255,255,255,255,255,255,255,255,255,255,255,255,255,255,255,255,255,255,255,255,255,255,255,255,255,255,255,255,255,255,255,255,255,255,255,255,255,255,255,255,255,255,255,255,255,255,255,255,255,255,255,255,255,255,255,255,255,255,255,255,255,255,255,255,255,255,255,255,255,255,255,255,255,255,255,255,255,255,255,255,255,255,255,255,255,255,255,255,255,255,255,255,255,255,255,255,255,255,255,255,255,255,255,255,255,255,255,255,255,255,255,255,255,255,255,255,255,255,255,255,255,255,170,170,170,170,170,170,170,169,169,169,169,168,168,168,168,168,168,168,168,164,164,164,164,163,163,255,255,161,161,160,160,160,255,255,255,255,157,157,157,157,157,156,156,156,156,156,156,156,155,155,155,155,155,154,155,154,154,154,154,154,154,154,154,154,154,154,154,154,154,154,154,154,154,154,153,153,153,153,152,152,152,152,152,152,152,152,152,152,152,152,152,152,152,152,152,152,153,153,153,153,153,153,153,153,153,153,153,153,153,153,153,153,153,153,153,153,153,153,153,153,153,153,153,153,153,153,153,153,152,152,152,152,152,152,152,152,152,152,151,151,151,151,151,151,151,146,146,146,145,145,144,144,144,144,144,144,144,143,143,143,143,143,143,143,142,143,143,139,139,139,138,138,138,138,137,137,137,137,137,137,138,138,138,138,138,137,137,137,136,136,136,136,136,135,135,135,135,135,135,135,134,134,134,134,134,134,134,133,133,133,132,132,132,132,132,132,132,132,132,132,132,132,133,133,133,133,133,133,133,134,134,132,132,131,131,131,132,132,132,132,132,132,132,132,132,133,134,134,134,135,136,136,136,136,137,137,137,137,138,138,138,138,141,141,141,252,252,252,252,252,252,252,252,252,252,252,252,252,252,252,252,252,251,252,251,252,252,251,252,251,251,251,251,251,251,251,251,252,252,251,251,252,251,251,251,251,251,251,251,251,251,255,255,255,255,255,255,255,255,251,251,251,250,250,250,250,250,253,253,253,254,253,253,253,253,253,253,253,253,253,252,255,255,255,255,255,255,255,255
255,255,255,255,255,255,255,255,255,255,255,255,255,255,255,255,255,255,255,255,255,255,255,255,255,255,255,255,255,255,255,255,255,255,255,255,255,255,255,255,255,255,255,255,255,255,255,255,255,255,255,255,255,255,255,255,255,255,255,255,255,255,255,255,255,255,255,255,255,255,255,255,255,255,255,255,255,255,255,255,255,255,255,255,255,255,255,255,255,255,255,255,255,255,255,255,255,255,255,255,255,255,255,255,255,255,255,255,255,255,255,255,255,255,255,255,255,255,255,255,255,255,255,255,255,255,255,255,255,255,255,255,255,255,255,255,255,255,255,255,255,255,255,255,255,255,255,255,255,255,255,255,255,255,255,255,255,255,255,255,255,255,255,255,255,255,255,255,255,255,255,255,255,255,255,255,255,255,255,255,255,255,255,255,255,255,255,255,255,255,255,255,255,255,255,255,255,255,255,255,255,255,255,255,255,255,255,255,255,255,255,255,255,255,255,255,255,255,255,255,255,255,255,255,255,255,255,255,255,255,255,255,255,255,255,255,255,255,255,255,255,255,255,255,255,255,255,255,255,255,255,255,255,255,255,255,255,255,255,255,255,255,255,255,255,255,255,255,255,255,255,255,255,255,255,255,255,255,255,255,255,255,255,255,255,255,255,255,255,255,255,255,170,170,170,170,170,170,169,169,169,169,168,168,168,168,167,167,167,167,164,164,164,164,163,163,255,255,255,160,160,160,160,160,255,255,157,157,157,157,157,157,157,156,156,156,156,156,156,155,155,155,155,155,155,155,155,155,154,154,154,154,154,154,154,154,154,154,155,154,154,154,154,154,154,152,152,152,152,152,152,152,152,152,152,152,152,152,152,152,152,152,152,152,152,152,152,152,152,153,153,153,153,153,153,153,153,153,153,153,153,153,153,153,153,153,153,153,153,153,153,153,153,153,153,153,153,152,152,152,152,152,152,152,152,152,152,152,151,151,151,151,151,151,151,151,146,145,145,145,145,144,144,144,144,144,144,143,143,143,143,143,143,143,143,143,142,142,142,142,138,138,138,138,138,137,137,137,137,137,137,137,138,138,138,137,137,137,137,136,136,136,136,135,135,135,135,134,134,134,134,134,134,134,134,134,134,133,133,133,132,132,132,132,132,132,132,132,132,132,132,132,132,133,133,133,133,133,133,133,133,133,132,132,131,131,131,131,132,132,132,132,132,132,132,132,133,133,134,134,135,135,136,136,136,137,137,137,137,138,138,138,138,138,141,141,141,141,252,252,252,252,252,252,252,252,252,252,252,252,252,252,251,251,252,251,251,252,251,252,252,252,251,252,251,251,251,251,251,251,251,251,251,251,251,251,251,251,251,251,251,252,252,255,255,255,255,255,255,255,255,251,251,250,250,250,250,250,253,253,253,254,253,253,253,253,253,253,253,253,253,252,255,255,255,255,255,255,255,255
