2047,2047,2047,2047,2047,2047,2047,2047,2047,2047,2047,2047,2047,2047,2047,2047,2047,2047,2047,2047,2047,2047,2047,2047,2047,2047,2047,2047,2047,2047,2047,2047,2047,2047,2047,2047,2047,2047,2047,2047,2047,2047,2047,2047,2047,2047,2047,2047,2047,2047,2047,2047,2047,2047,2047,2047,2047,2047,2047,2047,2047,2047,2047,2047,2047,2047,2047,610,610,610,610,612,612,612,613,615,616,617,617,619,620,621,621,622,621,622,621,621,620,620,620,621,621,621,621,621,621,621,620,620,619,620,620,619,619,619,619,619,619,619,620,620,620,620,619,619,620,620,619,619,619,619,619,619,619,617,617,617,617,617,616,617,617,617,618,618,618,619,619,619,619,619,619,620,620,621,621,621,622,622,623,623,623,624,624,624,624,625,627,627,627,628,629,630,631,631,632,633,634,635,635,636,637,638,638,639,640,642,643,645,647,647,649,649,650,652,651,2047,2047,2047,2047,2047,2047,2047,1038,1037,1037,1037,1037,1036,1037,1037,1038,1039,1039,1039,1038,1038,1038,1038,1037,1038,1038,1038,1038,1038,1038,1038,1038,1038,1038,1038,1038,1038,1038,1038,1038,1038,1037,1036,1036,1036,1035,1035,1036,1037,1037,1037,1038,1038,1038,1038,1038,1038,1037,1038,1038,1038,1037,1037,1037,1038,1038,1038,1038,1037,1037,1037,1037,1037,1037,1037,1037,1037,1037,1037,1037,1037,1037,1037,1037,1037,1037,1037,1036,1036,1036,1035,1035,1035,1036,1035,1035,1036,1036,1036,1037,1036,1036,1036,1036,1036,1036,1036,1036,1036,1036,1036,1036,1035,1035,1035,1035,1035,1035,1035,1035,1035,1035,1036,1036,1036,1036,1036,1036,1036,1035,1035,1035,1035,1034,1033,1033,1033,1033,1033,1033,1033,1033,1033,1033,1033,1033,1033,1033,1033,1034,1033,1033,1033,1033,1033,1033,1033,1032,1033,1033,1033,1032,1033,1033,1033,1033,1033,1033,1033,1033,1033,1032,1032,1033,1033,1032,1032,1032,1032,1032,1032,1032,1032,1032,1032,1032,1032,1032,1032,1032,1032,1032,1032,1032,1032,1032,1031,1031,1031,1030,1030,1030,1031,1030,1030,1030,1030,1030,1030,1030,1029,1029,1029,1030,1030,1030,1030,1030,1030,1030,1030,1029,1029,1029,1029,1028,1028,1028,1029,1029,1029,1029,1029,1029,1029,1029,1029,1029,1029,1028,1028,1028,1029,1029,1029,1028,1028,1028,1028,1028,1028,1027,1028,1027,1027,1027,1027,1027,1027,1027,1027,1027,1027,1027,1026,1027,1027,1027,1026,1026,1026,1026,1026,1025,1026,1026,1025,1025,1024,2047,2047,2047,2047,2047,2047,2047,2047,2047,2047,2047,2047,2047,2047,2047,2047,2047,2047,2047,2047,2047,2047,2047,2047,2047,2047,2047,2047,2047,2047,2047,2047,2047,2047,2047,2047,2047,2047,2047,2047,2047,2047,2047,2047,2047,2047,2047,2047,2047,2047,2047,2047,2047,2047,2047,2047,2047,2047,2047,2047,2047,2047,2047,2047,2047,509,509,509,509,509,509,509,508,508,507,505,501,501,501,501,501,500,499,500,498,498,498,489,489,488,488,487,487,486,486,2047,2047,2047,2047,2047,2047,2047,2047,2047,2047,2047,458,457,455,454,454,453,451,450,449,448,446,446,446,445,444,442,441,440,438,438,437,437,436,436,434,433,432,431,430,430,428,427,426,425,424,421,420,420,419,418,417,416,415,412,412,411,410,409,408,406,405,403,404,404,400,400,399,396,396,395,2047,2047,2047,2047,2047,2047,2047,2047
2047,2047,2047,2047,2047,2047,2047,2047,2047,2047,2047,2047,2047,2047,2047,2047,2047,2047,2047,2047,2047,2047,2047,2047,2047,2047,2047,2047,2047,2047,2047,2047,2047,2047,2047,2047,2047,2047,2047,2047,2047,2047,2047,2047,2047,2047,614,613,2047,2047,2047,2047,2047,620,622,622,622,621,621,621,620,621,621,621,621,621,621,621,621,621,621,622,622,624,625,625,625,625,625,624,625,624,624,623,622,623,622,622,621,621,622,622,622,621,621,620,620,620,620,620,619,619,619,619,619,619,619,619,618,618,618,618,618,617,617,616,617,617,617,617,617,617,617,617,617,616,616,616,616,616,615,615,615,616,616,616,617,617,618,618,618,618,618,619,619,620,620,620,621,622,622,623,623,623,624,624,624,625,626,626,626,627,628,629,630,631,631,632,633,633,635,635,636,637,637,639,640,641,642,643,644,646,648,648,649,650,650,2047,2047,2047,2047,2047,2047,2047,1038,1037,1037,1037,1037,1037,1037,1038,1038,1039,1039,1039,1039,1039,1038,1038,1038,1038,1038,1038,1038,1038,1038,1038,1038,1038,1038,1038,1038,1038,1038,1038,1038,1037,1037,1036,1036,1036,1036,1036,1036,1037,1037,1037,1038,1038,1038,1038,1038,1037,1037,1037,1037,1037,1037,1037,1037,1037,1037,1037,1037,1036,1037,1037,1037,1037,1037,1037,1037,1037,1037,1037,1037,1037,1037,1037,1037,1037,1037,1036,1036,1036,1035,1035,1035,1035,1035,1035,1035,1036,1036,1036,1037,1036,1037,1037,1036,1036,1036,1036,1036,1036,1035,1036,1035,1035,1035,1035,1035,1035,1035,1035,1035,1036,1035,1035,1035,1036,1036,1035,1036,1035,1035,1035,1034,1034,1034,1033,1033,1033,1033,1033,1033,1033,1033,1033,1033,1033,1033,1033,1033,1033,1034,1033,1033,1033,1033,1033,1033,1033,1032,1033,1032,1032,1033,1033,1033,1033,1033,1033,1033,1032,1032,1032,1032,1032,1033,1033,1032,1032,1032,1032,1032,1032,1032,1032,1032,1032,1032,1032,1032,1032,1032,1032,1032,1031,1031,1031,1032,1031,1031,1031,1030,1031,1031,1031,1030,1031,1030,1030,1030,1030,1030,1029,1029,1029,1029,1029,1030,1029,1029,1030,1030,1030,1030,1029,1029,1029,1029,1028,1028,1028,1029,1028,1030,1030,1029,1029,1029,1029,1029,1029,1028,1028,1028,1029,1029,1028,1028,1028,1028,1028,1028,1028,1028,1027,1027,1027,1027,1027,1027,1027,1027,1027,1027,1027,1027,1026,1026,1026,1026,1026,1026,1026,1026,1026,1026,1025,1025,1025,1025,1025,1025,2047,2047,2047,2047,2047,2047,2047,2047,2047,2047,2047,2047,2047,2047,2047,2047,2047,2047,2047,2047,2047,2047,2047,2047,2047,2047,2047,2047,2047,2047,2047,2047,2047,2047,2047,2047,2047,2047,2047,2047,2047,2047,2047,2047,2047,2047,2047,2047,2047,2047,2047,2047,2047,2047,2047,2047,2047,2047,2047,2047,2047,2047,2047,2047,509,510,510,510,510,510,510,509,509,507,504,503,502,501,501,500,500,500,500,500,500,2047,490,490,488,488,487,487,486,486,2047,2047,2047,2047,2047,2047,2047,2047,2047,2047,2047,2047,454,454,454,453,453,451,450,449,447,447,446,446,446,444,443,441,440,437,437,437,437,436,435,434,433,432,431,430,429,428,427,426,425,424,422,421,420,418,417,416,415,414,412,411,411,410,409,408,407,405,404,404,404,404,397,397,396,396,395,2047,2047,2047,2047,2047,2047,2047,2047
2047,2047,2047,2047,2047,2047,2047,2047,2047,2047,2047,2047,2047,2047,2047,2047,2047,2047,2047,2047,2047,2047,2047,2047,2047,2047,2047,2047,2047,2047,2047,2047,2047,2047,2047,2047,2047,2047,2047,2047,2047,2047,2047,2047,2047,614,614,614,614,2047,2047,2047,2047,618,619,621,621,620,621,621,620,621,621,621,621,622,621,622,621,622,622,622,623,624,624,625,625,625,624,624,624,623,623,622,622,622,621,621,621,621,621,621,621,620,620,620,620,620,619,619,618,618,618,618,618,618,618,618,618,617,617,617,617,617,617,616,616,617,617,617,616,616,616,616,616,615,615,615,615,615,615,615,615,615,615,615,616,617,617,617,618,618,618,618,619,619,619,619,620,620,621,622,622,623,624,624,624,624,625,625,625,625,627,628,630,631,631,632,632,633,634,635,636,637,637,638,639,640,641,641,643,645,647,648,649,651,651,2047,2047,2047,2047,2047,2047,2047,1038,1037,1037,1037,1037,1037,1037,1038,1038,1039,1039,1039,1039,1039,1038,1038,1038,1038,1038,1038,1038,1038,1038,1038,1038,1038,1038,1038,1038,1038,1038,1038,1037,1037,1036,1036,1036,1036,1036,1036,1037,1037,1038,1038,1038,1038,1038,1038,1038,1037,1037,1037,1037,1037,1037,1036,1036,1036,1037,1037,1037,1036,1036,1037,1037,1037,1037,1037,1037,1037,1037,1037,1037,1037,1037,1037,1037,1037,1037,1036,1036,1036,1035,1035,1035,1035,1035,1035,1036,1037,1037,1036,1037,1036,1037,1037,1036,1036,1036,1036,1036,1036,1035,1035,1035,1035,1035,1035,1035,1035,1035,1035,1035,1035,1035,1035,1035,1035,1036,1035,1036,1035,1035,1035,1035,1034,1034,1033,1033,1033,1033,1033,1033,1033,1033,1033,1033,1033,1033,1033,1033,1033,1033,1033,1033,1033,1033,1033,1033,1033,1032,1033,1032,1033,1033,1033,1033,1033,1033,1032,1033,1032,1032,1032,1032,1032,1033,1033,1033,1032,1032,1032,1032,1032,1032,1032,1032,1032,1032,1032,1032,1032,1032,1032,1032,1031,1031,1031,1031,1031,1031,1031,1030,1030,1031,1031,1030,1031,1030,1030,1030,1030,1030,1029,1029,1029,1029,1029,1029,1029,1029,1030,1030,1030,1030,1030,1030,1029,1029,1028,1029,1029,1029,1029,1029,1029,1029,1029,1029,1029,1029,1028,1028,1028,1028,1028,1028,1028,1028,1028,1028,1028,1028,1028,1028,1027,1027,1027,1027,1027,1027,1027,1027,1027,1027,1027,1027,1026,1026,1026,1026,1026,1026,1026,1026,1025,1025,1025,1025,1025,1025,1025,1025,1025,2047,2047,2047,2047,2047,2047,2047,2047,2047,2047,2047,2047,2047,2047,2047,2047,2047,2047,2047,2047,2047,2047,2047,2047,2047,2047,2047,2047,2047,2047,2047,2047,2047,2047,2047,2047,2047,2047,2047,2047,2047,2047,2047,2047,2047,2047,2047,2047,2047,2047,2047,2047,2047,2047,2047,2047,2047,2047,2047,2047,2047,2047,2047,509,510,510,510,510,510,510,509,508,507,504,503,502,501,501,500,500,500,500,500,498,2047,497,2047,2047,488,487,487,486,486,485,482,481,481,2047,2047,2047,2047,2047,2047,2047,457,457,454,454,454,453,451,450,449,446,446,446,446,445,445,445,441,438,437,437,437,436,436,436,434,433,432,431,430,429,428,427,426,425,424,422,421,420,418,417,416,415,414,412,410,410,410,409,408,407,405,404,404,404,2047,397,397,396,396,395,2047,2047,2047,2047,2047,2047,2047,2047
2047,2047,2047,2047,2047,2047,2047,2047,2047,2047,2047,2047,2047,2047,2047,2047,2047,2047,2047,2047,2047,2047,2047,2047,2047,2047,2047,2047,2047,2047,2047,2047,2047,2047,2047,2047,2047,2047,2047,2047,2047,2047,2047,2047,614,614,614,614,614,614,618,616,617,618,619,620,621,621,621,621,620,621,622,621,621,622,622,622,622,622,622,623,624,625,625,625,625,624,624,623,623,622,622,621,621,621,621,621,620,620,620,620,620,620,619,618,619,619,618,618,618,617,618,617,617,617,617,617,617,617,617,616,617,616,616,615,615,616,616,616,615,615,614,614,614,613,614,613,613,614,614,614,614,614,614,615,615,616,616,617,617,617,617,618,618,619,619,619,619,620,621,622,622,623,624,624,624,624,624,624,624,625,627,628,629,630,630,631,631,632,633,635,636,637,637,638,638,639,640,641,642,644,646,647,648,651,652,652,2047,2047,2047,2047,2047,2047,1038,1037,1037,1037,1037,1037,1038,1038,1039,1039,1039,1039,1039,1039,1039,1038,1038,1038,1038,1038,1038,1038,1038,1038,1038,1038,1038,1038,1038,1038,1038,1037,1037,1036,1036,1036,1036,1036,1036,1036,1037,1038,1038,1038,1038,1038,1038,1038,1037,1037,1036,1036,1037,1037,1037,1036,1036,1036,1036,1037,1036,1036,1036,1036,1037,1037,1037,1037,1037,1037,1037,1037,1037,1037,1037,1037,1037,1037,1036,1036,1036,1035,1035,1035,1035,1035,1036,1035,1036,1037,1036,1036,1036,1036,1036,1036,1036,1035,1035,1035,1035,1035,1035,1035,1035,1034,1035,1035,1035,1035,1035,1035,1035,1035,1035,1035,1035,1035,1035,1035,1035,1035,1035,1035,1035,1034,1034,1033,1033,1033,1033,1033,1033,1033,1033,1033,1033,1033,1033,1033,1033,1033,1033,1033,1033,1033,1033,1033,1033,1033,1033,1033,1032,1032,1032,1033,1033,1033,1033,1033,1033,1032,1033,1033,1033,1032,1033,1033,1033,1032,1032,1032,1032,1032,1032,1032,1032,1032,1032,1032,1032,1032,1032,1031,1031,1031,1031,1031,1031,1031,1031,1031,1030,1030,1030,1030,1030,1030,1030,1030,1030,1030,1030,1029,1029,1029,1029,1029,1030,1029,1029,1030,1029,1030,1029,1029,1029,1029,1028,1028,1028,1029,1029,1029,1029,1029,1029,1029,1029,1029,1029,1028,1028,1028,1028,1028,1028,1028,1028,1028,1028,1028,1028,1028,1028,1028,1027,1027,1027,1027,1027,1027,1027,1027,1027,1027,1026,1025,1026,1026,1026,1025,1025,1025,1025,1025,1025,1025,1025,1025,1024,1025,1025,1025,2047,2047,2047,2047,2047,2047,2047,2047,2047,2047,2047,2047,2047,2047,2047,2047,2047,2047,2047,2047,2047,2047,2047,2047,2047,2047,2047,2047,2047,2047,2047,2047,2047,2047,2047,2047,2047,2047,2047,2047,2047,2047,2047,2047,2047,2047,2047,2047,2047,2047,2047,2047,2047,2047,2047,2047,2047,2047,2047,2047,2047,2047,510,510,510,510,510,510,509,509,508,507,505,503,503,502,501,500,499,499,499,499,498,498,497,2047,2047,2047,2047,2047,487,486,486,486,482,481,482,2047,2047,2047,2047,2047,458,457,457,456,456,454,453,453,453,450,448,446,445,445,445,445,444,444,441,438,437,437,437,437,436,436,435,433,432,431,430,429,428,427,426,425,424,423,421,418,417,417,416,415,414,412,410,410,409,409,408,407,405,404,404,404,2047,398,398,397,396,396,2047,2047,2047,2047,2047,2047,2047,2047
2047,2047,2047,2047,2047,2047,2047,2047,2047,2047,2047,2047,2047,2047,2047,2047,2047,2047,2047,2047,2047,2047,2047,2047,2047,2047,2047,2047,2047,2047,2047,2047,2047,2047,2047,2047,2047,2047,2047,2047,2047,2047,2047,2047,614,615,614,614,616,617,618,617,617,618,619,620,621,621,621,621,620,621,621,621,621,621,621,622,622,622,622,623,624,624,624,624,624,624,623,622,622,621,621,620,621,621,620,620,620,620,620,619,619,619,618,618,618,618,618,618,618,617,617,617,617,616,617,616,616,616,616,616,616,616,616,615,615,615,614,614,614,614,613,613,613,612,613,613,612,613,613,613,613,614,614,614,615,615,616,616,617,617,617,617,617,618,618,619,618,619,620,621,622,623,623,623,624,624,624,624,624,625,625,627,628,629,630,630,630,631,633,634,635,636,636,637,637,638,640,641,642,643,644,648,650,652,652,652,653,2047,2047,2047,2047,2047,1037,1038,1037,1037,1038,1038,1038,1038,1039,1039,1039,1039,1039,1039,1039,1039,1039,1039,1039,1038,1038,1038,1038,1038,1038,1038,1038,1038,1038,1038,1038,1037,1037,1036,1036,1036,1035,1036,1037,1037,1037,1037,1038,1038,1038,1038,1038,1038,1037,1037,1036,1037,1037,1037,1037,1036,1036,1036,1036,1036,1036,1035,1036,1036,1037,1037,1037,1037,1037,1036,1037,1036,1037,1037,1037,1037,1037,1036,1036,1036,1036,1035,1035,1035,1035,1036,1036,1036,1036,1036,1036,1036,1036,1036,1036,1036,1035,1035,1035,1035,1035,1035,1035,1035,1035,1035,1035,1035,1035,1034,1035,1035,1034,1035,1035,1035,1035,1035,1034,1034,1035,1034,1035,1034,1034,1034,1034,1033,1033,1033,1033,1033,1033,1033,1033,1033,1033,1033,1033,1033,1033,1033,1033,1033,1033,1033,1033,1033,1033,1033,1033,1033,1032,1032,1032,1032,1033,1033,1033,1033,1033,1033,1033,1033,1033,1033,1033,1033,1033,1033,1032,1032,1032,1032,1032,1032,1032,1032,1032,1032,1032,1032,1032,1032,1031,1031,1031,1031,1031,1031,1031,1031,1030,1030,1030,1030,1030,1030,1030,1030,1030,1030,1029,1029,1029,1029,1029,1029,1029,1029,1030,1030,1029,1029,1029,1029,1029,1029,1028,1028,1029,1029,1029,1029,1029,1029,1029,1029,1029,1029,1029,1028,1028,1028,1028,1028,1028,1028,1028,1028,1028,1028,1028,1028,1028,1028,1027,1027,1027,1027,1027,1027,1027,1027,1027,1027,1026,1025,1026,1026,1026,1025,1025,1025,1025,1025,1025,1025,1025,1024,1024,1024,1025,2047,2047,2047,2047,2047,2047,2047,2047,2047,2047,2047,2047,2047,2047,2047,2047,2047,2047,2047,2047,2047,2047,2047,2047,2047,2047,2047,2047,2047,2047,2047,2047,2047,2047,2047,2047,2047,2047,2047,2047,2047,2047,2047,2047,2047,2047,2047,2047,2047,2047,2047,2047,2047,2047,2047,2047,2047,2047,2047,2047,2047,2047,510,510,510,510,510,510,510,509,509,508,507,505,503,503,502,501,500,499,499,499,498,497,497,497,2047,2047,2047,2047,2047,2047,2047,486,486,484,482,482,2047,2047,2047,2047,2047,458,457,457,456,454,454,453,453,453,2047,446,446,445,445,445,444,444,442,441,439,437,437,437,436,436,436,434,433,431,431,430,429,429,427,427,425,424,422,421,418,417,416,416,415,413,412,411,410,409,408,407,407,405,404,404,404,2047,398,398,397,396,396,2047,2047,2047,2047,2047,2047,2047,2047
2047,2047,2047,2047,2047,2047,2047,2047,2047,2047,2047,2047,2047,2047,2047,2047,2047,2047,2047,2047,2047,2047,2047,2047,2047,2047,2047,2047,2047,2047,2047,2047,2047,2047,2047,2047,2047,2047,2047,2047,2047,2047,2047,2047,2047,615,614,616,618,618,618,617,618,618,619,620,621,621,621,621,620,621,621,621,621,621,621,622,622,622,622,623,624,624,624,624,624,623,622,621,621,621,620,620,620,620,620,620,620,620,619,619,619,619,618,618,618,618,617,617,617,617,616,616,616,616,616,616,616,616,615,615,615,615,615,613,613,613,613,613,613,613,613,613,612,612,612,612,612,612,613,613,613,613,614,614,615,615,615,615,616,616,616,616,616,617,618,618,618,619,619,620,621,621,623,623,623,624,624,624,624,625,625,627,628,628,629,630,630,631,632,633,634,635,636,637,637,638,639,640,641,641,642,648,650,652,652,652,653,2047,1038,2047,2047,1038,1038,1038,1038,1038,1038,1038,1038,1038,1039,1039,1039,1039,1039,1039,1039,1039,1039,1039,1039,1038,1038,1038,1038,1038,1038,1038,1038,1038,1038,1038,1037,1037,1037,2047,1036,1036,1035,1036,1037,1037,1037,1037,1038,1038,1038,1038,1038,1038,1037,1037,1037,1037,1037,1037,1037,1036,1036,1036,1036,1037,1036,1036,1036,1036,1036,1037,1036,1036,1036,1036,1036,1036,1036,1036,1036,1036,1036,1036,1036,1035,1035,1035,1036,1036,1036,1036,1036,1036,1036,1036,1036,1036,1036,1036,1036,1036,1035,1035,1035,1035,1035,1035,1035,1035,1035,1035,1035,1035,1035,1034,1035,1034,1034,1034,1035,1034,1034,1034,1034,1034,1034,1034,1034,1034,1034,1034,1034,1033,1033,1033,1033,1033,1033,1033,1033,1033,1033,1033,1033,1033,1033,1033,1033,1033,1033,1034,1033,1033,1033,1033,1033,1033,1032,1032,1032,1032,1032,1032,1033,1032,1033,1033,1033,1033,1033,1033,1033,1033,1033,1033,1033,1032,1032,1032,1032,1032,1032,1032,1032,1032,1032,1032,1032,1032,1031,1031,1031,1031,1031,1031,1031,1030,1029,1029,1029,1029,1029,1030,1030,1030,1030,1030,1030,1029,1030,1029,1030,1030,1030,1030,1030,1030,1030,1030,1029,1029,1028,1028,1028,1028,1028,1029,1029,1029,1029,1029,1029,1029,1029,1029,1029,1028,1028,1028,1028,1029,1028,1028,1028,1028,1028,1028,1028,1028,1028,1027,1027,1027,1027,1027,1027,1027,1027,1027,1027,1027,1026,1025,1026,1026,1026,1026,1025,1025,1025,1025,1025,1024,1024,1024,1024,1024,1024,2047,2047,2047,2047,2047,2047,2047,2047,2047,2047,2047,2047,2047,2047,2047,2047,2047,2047,2047,2047,2047,2047,2047,2047,2047,2047,2047,2047,2047,2047,2047,2047,2047,2047,2047,2047,2047,2047,2047,2047,2047,2047,2047,2047,2047,2047,2047,2047,2047,2047,2047,2047,2047,2047,2047,2047,2047,2047,2047,2047,2047,2047,509,509,510,510,510,510,509,509,509,507,506,504,502,502,501,500,499,498,498,497,497,496,496,497,497,497,2047,2047,2047,2047,486,486,486,484,2047,482,2047,2047,2047,2047,2047,457,457,456,455,454,454,453,453,2047,2047,2047,2047,446,445,445,445,444,444,441,440,437,437,437,436,436,436,433,432,431,430,429,429,429,427,426,426,424,422,418,418,417,416,416,416,413,411,411,410,409,408,407,407,405,404,404,404,403,398,398,397,396,396,2047,2047,2047,2047,2047,2047,2047,2047
2047,2047,2047,2047,2047,2047,2047,2047,2047,2047,2047,2047,2047,2047,2047,2047,2047,2047,2047,2047,2047,2047,2047,2047,2047,2047,2047,2047,2047,2047,2047,2047,2047,2047,2047,2047,2047,2047,2047,2047,2047,2047,2047,2047,2047,614,614,615,618,618,619,618,618,619,620,621,622,622,622,622,620,621,621,620,621,621,621,622,622,622,622,623,623,623,623,623,623,622,621,621,621,620,620,620,620,620,620,620,620,619,618,618,618,618,617,617,617,617,617,617,616,616,616,616,616,616,616,615,615,615,615,614,613,613,613,613,613,612,612,612,612,613,612,612,612,611,611,612,612,612,612,613,613,613,614,614,614,615,615,615,616,616,616,616,616,616,620,620,620,621,622,623,623,623,624,624,625,626,626,626,627,627,628,629,629,630,631,631,631,632,633,634,635,636,637,638,640,641,643,643,644,645,647,648,2047,2047,2047,2047,2047,2047,2047,2047,2047,1039,1039,1039,1039,1039,1039,1039,1039,1039,1039,1039,1039,1039,1039,1039,1039,1039,1039,1039,1039,1039,1039,1038,1038,1038,1038,1037,1037,1037,1037,1036,1035,1035,1035,1035,1036,1035,1035,1036,1036,1036,1036,1037,1037,1037,1037,1037,1037,1037,1037,1037,1037,1037,1037,1037,1037,1037,1037,1037,1037,1037,1037,1036,1036,1037,1037,1037,1037,1037,1037,1036,1036,1036,1036,1036,1036,1036,1036,1036,1036,1036,1036,1035,1035,1035,1035,1035,1035,1035,1035,1035,1035,1035,1036,1036,1036,1035,1035,1035,1035,1035,1035,1035,1034,1035,1034,1034,1034,1034,1034,1034,1034,1034,1034,1034,1035,1034,1034,1034,1034,1034,1034,1034,1034,1035,1034,1034,1034,1033,1033,1033,1033,1033,1033,1033,1033,1033,1033,1033,1033,1033,1033,1033,1033,1033,1033,1033,1033,1033,1033,1032,1032,1032,1032,1032,1032,1033,1033,1033,1032,1032,1032,1032,1032,1032,1032,1032,1033,1033,1033,1032,1032,1032,1032,1032,1032,1032,1032,1032,1032,1032,1032,1032,1032,1032,1032,1032,1031,1031,1031,1031,1031,1030,1030,1029,1029,1029,1029,1030,1029,1029,1029,1029,1029,1029,1029,1029,1030,1030,1030,1030,1030,1030,1029,1029,1028,1028,1028,1028,1028,1028,1028,1028,1028,1028,1028,1028,1029,1029,1028,1028,1028,1028,1028,1028,1028,1028,1028,1028,1028,1028,1028,1028,1028,1027,1027,1027,1027,1027,1027,1027,1027,1027,1027,1027,1027,1027,1027,1026,1026,1026,1026,1026,1025,1026,1026,1026,1025,1025,1025,1025,1024,1025,1025,2047,2047,2047,2047,2047,2047,2047,2047,2047,2047,2047,2047,2047,2047,2047,2047,2047,2047,2047,2047,2047,2047,2047,2047,2047,2047,2047,2047,2047,2047,2047,2047,2047,2047,2047,2047,2047,2047,2047,2047,2047,2047,2047,2047,2047,2047,2047,2047,2047,2047,2047,2047,2047,2047,2047,2047,2047,2047,2047,2047,2047,2047,2047,510,510,510,510,509,509,508,508,507,506,505,503,502,501,499,499,498,498,498,498,497,497,497,497,2047,2047,2047,2047,2047,2047,2047,484,483,483,483,2047,2047,2047,2047,453,454,454,454,454,454,454,2047,2047,2047,2047,2047,2047,446,446,446,445,445,444,441,441,440,439,439,437,437,436,435,433,432,432,431,430,429,428,428,428,425,421,421,420,419,417,417,416,415,414,413,412,411,410,410,406,405,404,404,403,401,401,400,399,397,396,2047,2047,2047,2047,2047,2047,2047,2047
2047,2047,2047,2047,2047,2047,2047,2047,2047,2047,2047,2047,2047,2047,2047,2047,2047,2047,2047,2047,2047,2047,2047,2047,2047,2047,2047,2047,2047,2047,2047,2047,2047,2047,2047,2047,2047,2047,2047,2047,2047,2047,2047,2047,2047,2047,2047,2047,2047,622,624,625,626,626,626,627,627,626,626,625,624,624,624,624,624,626,626,626,627,627,627,627,626,625,624,624,624,624,623,623,622,622,622,621,621,621,620,620,620,619,618,618,618,617,617,617,617,617,616,616,616,615,614,614,614,613,613,612,612,612,612,611,611,611,612,612,612,612,612,612,613,613,612,612,612,611,612,612,612,612,612,613,613,614,614,615,615,616,616,617,617,618,619,619,619,620,620,620,621,621,621,622,623,622,623,624,625,625,625,626,626,627,627,628,628,630,631,631,631,632,633,634,635,636,636,637,639,640,641,643,644,646,647,648,2047,2047,2047,2047,2047,2047,2047,2047,2047,1039,1039,1039,1039,1039,1039,1039,1039,1039,1039,1039,1039,1039,1039,1039,1039,1039,1039,1039,1039,1038,1038,1038,1038,1038,1038,1037,1037,1036,1035,1035,1034,1034,1034,1034,1035,1035,1035,1036,1036,1036,1036,1036,1037,1037,1037,1037,1037,1037,1037,1037,1037,1037,1037,1037,1037,1037,1037,1037,1037,1037,1037,1036,1036,1036,1037,1037,1036,1036,1036,1036,1036,1036,1036,1036,1036,1036,1036,1036,1035,1035,1035,1035,1035,1035,1035,1034,1035,1035,1035,1035,1035,1035,1035,1035,1035,1035,1035,1035,1035,1035,1035,1035,1034,1035,1035,1034,1034,1034,1034,1034,1034,1034,1034,1034,1034,1034,1034,1034,1034,1034,1034,1034,1034,1034,1034,1034,1034,1033,1033,1033,1033,1033,1033,1033,1033,1033,1033,1033,1033,1033,1033,1033,1033,1033,1033,1033,1033,1033,1033,1032,1032,1032,1032,1032,1032,1032,1032,1032,1032,1032,1032,1032,1032,1032,1032,1032,1032,1033,1032,1032,1032,1032,1032,1032,1032,1032,1032,1032,1032,1032,1032,1032,1032,1032,1032,1032,1032,1032,1032,1031,1031,1030,1030,1029,1030,1029,1030,1030,1029,1030,1029,1029,1029,1029,1029,1029,1030,1030,1030,1030,1030,1030,1029,1029,1028,1028,1028,1028,1028,1028,1028,1028,1028,1029,1029,1029,1029,1029,1029,1028,1028,1028,1028,1028,1028,1028,1028,1028,1028,1028,1028,1028,1028,1027,1028,1027,1027,1027,1027,1027,1027,1027,1027,1027,1027,1027,1027,1026,1026,1026,1026,1026,1026,1026,1026,1026,1026,1025,1026,1025,1024,1025,2047,2047,2047,2047,2047,2047,2047,2047,2047,2047,2047,2047,2047,2047,2047,2047,2047,2047,2047,2047,2047,2047,2047,2047,2047,2047,2047,2047,2047,2047,2047,2047,2047,2047,2047,2047,2047,2047,2047,2047,2047,2047,2047,2047,2047,2047,2047,2047,2047,2047,2047,2047,2047,2047,2047,2047,2047,2047,2047,2047,2047,2047,2047,2047,511,510,510,510,509,509,507,507,506,505,504,503,502,500,499,499,498,498,497,497,497,497,497,497,498,2047,2047,2047,2047,2047,2047,2047,2047,2047,2047,2047,2047,2047,2047,2047,454,454,454,454,454,454,2047,2047,2047,2047,2047,2047,2047,445,445,445,444,444,441,441,440,439,439,438,437,437,436,434,433,432,431,430,429,428,428,427,423,423,420,420,419,417,417,416,414,413,412,412,412,409,409,407,405,404,404,402,402,401,400,399,397,396,2047,2047,2047,2047,2047,2047,2047,2047
2047,2047,2047,2047,2047,2047,2047,2047,2047,2047,2047,2047,2047,2047,2047,2047,2047,2047,2047,2047,2047,2047,2047,2047,2047,2047,2047,2047,2047,2047,2047,2047,2047,2047,2047,2047,2047,2047,2047,2047,2047,2047,2047,2047,2047,2047,2047,2047,2047,625,625,626,626,626,627,626,627,626,626,625,624,624,624,624,624,626,626,626,627,627,626,627,626,625,624,624,624,624,623,623,622,622,622,621,621,621,620,620,619,618,618,618,617,617,617,616,616,616,616,616,615,615,614,614,613,612,612,611,611,611,611,611,610,610,611,611,611,611,612,612,612,612,612,612,612,612,612,612,612,612,613,614,614,614,615,615,615,616,616,616,617,617,618,618,619,619,619,620,620,620,620,621,622,622,623,623,624,625,625,625,626,626,627,628,628,629,630,631,631,632,633,634,635,636,636,637,639,640,641,642,644,645,646,647,2047,2047,2047,2047,2047,2047,2047,1039,1039,1039,1039,1039,1039,1039,1039,1039,1039,1039,1039,1039,1039,1039,1039,1039,1039,1039,1039,1039,1039,1038,1038,1038,1038,1038,1038,1037,1036,1036,1035,1034,1034,1034,1035,1035,1035,1035,1035,1035,1035,1035,1036,1037,1037,1037,1037,1036,1037,1038,1037,1037,1037,1037,1037,1037,1037,1037,1037,1037,1037,1037,1037,1036,1036,1037,1036,1036,1036,1036,1036,1036,1036,1036,1036,1036,1036,1036,1036,1036,1036,1036,1036,1035,1035,1035,1035,1035,1035,1035,1035,1035,1035,1035,1035,1035,1035,1034,1034,1034,1034,1034,1035,1035,1034,1035,1035,1035,1034,1034,1034,1034,1034,1034,1034,1034,1034,1034,1034,1034,1034,1034,1034,1034,1034,1034,1034,1034,1034,1033,1033,1033,1033,1033,1033,1033,1033,1033,1033,1033,1033,1033,1033,1033,1033,1033,1033,1033,1033,1033,1032,1032,1032,1032,1032,1032,1032,1032,1032,1033,1032,1032,1032,1032,1032,1032,1032,1032,1032,1033,1033,1032,1032,1032,1032,1032,1032,1032,1032,1032,1032,1032,1032,1032,1032,1032,1032,1032,1031,1031,1032,1031,1031,1031,1030,1030,1030,1030,1030,1030,1030,1030,1030,1029,1029,1029,1030,1030,1030,1030,1030,1030,1030,1029,1029,1029,1029,1028,1028,1029,1028,1028,1028,1028,1028,1029,1029,1029,1029,1029,1028,1028,1028,1028,1028,1028,1028,1028,1028,1028,1028,1028,1028,1028,1028,1027,1028,1027,1027,1027,1027,1027,1027,1027,1027,1027,1027,1027,1027,1026,1026,1026,1026,1026,1026,1026,1026,1026,1026,1026,1026,1025,1025,1025,2047,2047,2047,2047,2047,2047,2047,2047,2047,2047,2047,2047,2047,2047,2047,2047,2047,2047,2047,2047,2047,2047,2047,2047,2047,2047,2047,2047,2047,2047,2047,2047,2047,2047,2047,2047,2047,2047,2047,2047,2047,2047,2047,2047,2047,2047,2047,2047,2047,2047,2047,2047,2047,2047,2047,2047,2047,2047,2047,2047,2047,2047,2047,2047,511,510,510,509,508,508,507,507,506,505,504,502,502,500,499,499,498,498,497,497,497,497,498,498,499,2047,2047,2047,2047,2047,2047,2047,2047,2047,2047,2047,2047,2047,2047,2047,453,454,453,453,453,2047,2047,2047,2047,2047,2047,2047,2047,2047,2047,445,444,444,441,440,439,439,439,438,437,436,435,433,432,431,431,430,429,428,427,427,423,423,421,420,418,417,417,416,415,414,413,412,412,412,406,405,405,404,404,402,402,401,400,399,398,397,2047,2047,2047,2047,2047,2047,2047,2047
2047,2047,2047,2047,2047,2047,2047,2047,2047,2047,2047,2047,2047,2047,2047,2047,2047,2047,2047,2047,2047,2047,2047,2047,2047,2047,2047,2047,2047,2047,2047,2047,2047,2047,2047,2047,2047,2047,2047,2047,2047,2047,2047,2047,2047,2047,2047,2047,2047,2047,627,626,626,626,627,627,627,626,626,626,624,624,624,624,624,626,626,626,627,627,627,627,626,625,624,624,624,624,623,623,622,622,622,621,621,621,620,620,619,618,617,617,617,616,616,616,616,616,615,615,614,614,613,613,612,612,611,610,610,610,610,610,609,609,610,611,611,611,611,611,612,612,612,612,612,612,612,612,612,612,613,614,614,614,615,615,616,616,616,616,617,617,618,618,618,619,619,620,620,620,620,620,622,622,623,623,624,625,625,625,626,626,627,627,628,628,630,630,631,632,633,635,635,636,637,638,639,640,641,642,643,644,644,645,2047,2047,2047,2047,2047,2047,2047,1039,1039,1039,1039,1039,1039,1039,1039,1038,1039,1039,1039,1039,1039,1039,1039,1039,1039,1039,1039,1039,1038,1038,1038,1038,1038,1038,1037,1037,1036,1036,1035,1035,1036,1036,1036,1036,1036,1036,1035,1036,1036,1036,1036,1036,1037,1037,1037,1036,1037,1037,1037,1037,1037,1037,1038,1038,1038,1038,1037,1037,1037,1037,1037,1036,1036,1036,1036,1036,1036,1035,1035,1035,1035,1035,1035,1035,1036,1036,1036,1036,1036,1036,1036,1036,1036,1035,1035,1035,1035,1035,1035,1035,1035,1035,1035,1035,1035,1034,1034,1034,1034,1034,1034,1034,1034,1035,1035,1035,1034,1034,1034,1034,1034,1034,1034,1034,1034,1034,1034,1034,1034,1034,1034,1034,1034,1034,1034,1034,1034,1033,1033,1033,1033,1033,1033,1033,1033,1033,1033,1033,1033,1033,1033,1033,1033,1033,1033,1033,1033,1033,1032,1032,1032,1032,1032,1032,1032,1032,1032,1032,1032,1032,1031,1031,1032,1032,1032,1032,1032,1033,1033,1032,1032,1032,1032,1032,1032,1032,1032,1032,1032,1032,1032,1032,1032,1032,1032,1032,1032,1032,1032,1031,1031,1031,1030,1030,1030,1030,1030,1030,1030,1030,1030,1030,1030,1030,1030,1030,1030,1030,1030,1030,1030,1029,1029,1029,1028,1028,1028,1028,1028,1028,1028,1028,1029,1029,1029,1029,1029,1029,1028,1028,1028,1028,1028,1028,1028,1028,1028,1028,1028,1028,1028,1028,1027,1027,1028,1028,1027,1027,1027,1027,1027,1027,1027,1027,1027,1027,1027,1026,1026,1026,1026,1026,1026,1026,1026,1026,1026,1026,1025,1024,1024,1024,2047,2047,2047,2047,2047,2047,2047,2047,2047,2047,2047,2047,2047,2047,2047,2047,2047,2047,2047,2047,2047,2047,2047,2047,2047,2047,2047,2047,2047,2047,2047,2047,2047,2047,2047,2047,2047,2047,2047,2047,2047,2047,2047,2047,2047,2047,2047,2047,2047,2047,2047,2047,2047,2047,2047,2047,2047,2047,2047,2047,2047,2047,2047,2047,510,509,509,508,508,507,506,506,505,505,503,502,501,500,499,498,498,498,497,497,497,497,498,499,499,2047,2047,2047,2047,2047,2047,2047,2047,2047,2047,2047,2047,2047,2047,2047,454,453,453,452,452,451,2047,2047,2047,2047,2047,2047,2047,2047,2047,445,444,444,441,440,439,438,438,438,436,436,434,433,432,431,430,430,429,427,427,425,423,422,421,420,418,418,417,416,415,414,413,413,408,408,406,406,405,404,404,402,402,401,400,400,398,397,2047,2047,2047,2047,2047,2047,2047,2047
2047,2047,2047,2047,2047,2047,2047,2047,2047,2047,2047,2047,2047,2047,2047,2047,2047,2047,2047,2047,2047,2047,2047,2047,2047,2047,2047,2047,2047,2047,2047,2047,2047,2047,2047,2047,2047,2047,2047,2047,2047,2047,2047,2047,2047,2047,2047,2047,625,626,626,626,625,626,627,627,627,627,626,626,625,624,624,624,625,626,626,626,627,627,626,626,625,625,624,624,624,623,623,623,622,622,622,621,621,621,620,619,618,617,617,617,617,616,616,615,615,615,614,614,613,613,613,612,612,611,611,610,610,610,609,609,609,609,610,610,611,611,612,612,612,612,612,612,612,612,612,612,612,613,614,615,615,615,615,616,616,616,617,617,617,618,618,618,619,619,619,620,620,620,620,620,621,622,622,623,624,624,625,625,626,626,627,627,628,628,629,630,631,632,633,634,635,636,637,638,639,640,641,642,643,644,644,644,2047,2047,2047,2047,2047,2047,1039,1039,1039,1039,1039,1039,1039,1039,1039,1039,1039,1039,1039,1039,1039,1039,1038,1039,1039,1039,1038,1038,1038,1038,1038,1038,1038,1037,1037,1037,1037,1036,1036,1036,1036,2047,1036,1036,1036,1036,1036,1037,1036,1036,1036,1036,1037,1037,1037,1036,1036,1037,1037,1037,1037,1037,1038,1038,1038,1038,1038,1038,1037,1037,1037,1036,1036,1035,1035,1035,1035,1035,1035,1035,1035,1035,1035,1035,1036,1036,1036,1036,1036,1036,1036,1036,1036,1036,1035,1035,1035,1035,1035,1035,1035,1035,1035,1035,1035,1034,1034,1034,1034,1034,1034,1034,1034,1034,1034,1035,1034,1034,1034,1034,1034,1034,1034,1034,1034,1034,1034,1034,1034,1034,1034,1034,1034,1034,1034,1034,1034,1033,1033,1033,1033,1033,1033,1033,1033,1033,1033,1033,1033,1033,1033,1033,1033,1033,1033,1033,1033,1033,1032,1032,1032,1032,1032,1032,1032,1032,1032,1032,1032,1032,1032,1031,1032,1032,1032,1032,1033,1033,1033,1033,1033,1032,1032,1032,1032,1032,1031,1032,1032,1032,1032,1032,1032,1032,1032,1031,1031,1031,1031,1031,1031,1031,1030,1030,1030,1030,1030,1030,1030,1031,1030,1030,1030,1030,1030,1030,1031,1030,1030,1030,1030,1030,1029,1029,1029,1029,1029,1029,1029,1029,1029,1029,1029,1029,1029,1029,1029,1028,1028,1028,1028,1028,1028,1028,1028,1028,1028,1028,1028,1028,1028,1028,1028,1027,1028,1028,1027,1027,1027,1027,1027,1027,1027,1027,1027,1027,1026,1025,1025,1026,1026,1026,1026,1026,1026,1026,1026,1026,1026,1025,1024,2047,2047,2047,2047,2047,2047,2047,2047,2047,2047,2047,2047,2047,2047,2047,2047,2047,2047,2047,2047,2047,2047,2047,2047,2047,2047,2047,2047,2047,2047,2047,2047,2047,2047,2047,2047,2047,2047,2047,2047,2047,2047,2047,2047,2047,2047,2047,2047,2047,2047,2047,2047,2047,2047,2047,2047,2047,2047,2047,2047,2047,2047,2047,2047,2047,509,509,508,508,507,507,506,506,505,504,502,501,501,500,498,498,498,498,498,498,497,498,499,499,500,500,500,2047,2047,2047,2047,2047,2047,2047,2047,2047,2047,2047,2047,2047,2047,452,452,451,451,450,449,2047,2047,2047,2047,2047,2047,2047,2047,444,444,443,441,440,440,439,438,437,436,435,434,433,432,431,431,430,428,427,426,425,424,423,421,420,418,418,417,417,416,414,413,413,408,408,406,405,405,404,403,402,402,401,400,399,399,398,2047,2047,2047,2047,2047,2047,2047,2047
2047,2047,2047,2047,2047,2047,2047,2047,2047,2047,2047,2047,2047,2047,2047,2047,2047,2047,2047,2047,2047,2047,2047,2047,2047,2047,2047,2047,2047,2047,2047,2047,2047,2047,2047,2047,2047,2047,2047,2047,2047,2047,2047,2047,2047,2047,624,625,624,625,625,626,625,625,626,626,627,627,626,626,625,624,624,624,624,625,625,626,626,626,626,626,625,625,624,624,624,623,623,622,622,622,622,621,621,621,620,619,618,617,617,617,616,616,615,615,614,614,613,613,612,612,612,611,611,610,610,610,609,609,609,609,609,609,609,610,611,611,612,611,612,612,612,612,613,612,612,613,613,614,614,615,616,616,616,616,616,616,617,617,617,618,618,619,619,619,619,620,620,620,620,620,621,621,622,622,623,624,625,625,626,626,626,627,628,628,629,631,632,633,634,635,636,636,637,637,639,640,641,642,643,644,644,644,2047,2047,2047,2047,2047,2047,1039,1039,1039,1039,1039,1039,1039,1039,1039,1039,1039,1039,1039,1039,1039,1039,1038,1039,1039,1039,1039,1039,1038,1038,1038,1038,1037,1037,1037,1036,1036,1035,1035,1035,1035,1036,1036,1036,1037,1037,1036,1037,1037,1036,1035,1036,1037,1036,1037,1036,1036,1036,1037,1037,1037,1037,1037,1038,1038,1038,1038,1038,1038,1037,1038,1036,1035,1035,1035,1035,1035,1034,1034,1034,1035,1035,1035,1035,1036,1036,1036,1036,1036,1037,1037,1036,1036,1036,1035,1035,1035,1035,1035,1035,1035,1035,1035,1035,1035,1034,1034,1034,1034,1034,1034,1034,1034,1034,1034,1035,1034,1034,1034,1034,1034,1034,1034,1034,1034,1034,1034,1034,1034,1034,1034,1034,1034,1034,1034,1034,1034,1033,1033,1033,1033,1033,1033,1033,1033,1033,1033,1033,1032,1032,1032,1032,1032,1032,1032,1033,1033,1033,1032,1032,1032,1032,1032,1032,1032,1032,1032,1032,1032,1032,1032,1032,1032,1032,1032,1032,1033,1033,1033,1033,1033,1033,1032,1032,1032,1032,1032,1032,1032,1032,1032,1032,1031,1032,1031,1031,1031,1031,1031,1031,1031,1031,1030,1031,1030,1030,1030,1030,1030,1031,1030,1030,1030,1030,1030,1030,1031,1030,1030,1030,1030,1030,1030,1029,1028,1028,1028,1029,1028,1029,1028,1028,1029,1029,1029,1029,1029,1028,1028,1027,1028,1028,1028,1028,1028,1028,1028,1028,1028,1028,1028,1028,1028,1027,1027,1027,1027,1027,1027,1027,1027,1027,1027,1026,1027,1027,1026,1025,1025,1026,1026,1026,1026,1026,1026,1026,1026,1026,1026,1025,1025,2047,2047,2047,2047,2047,2047,2047,2047,2047,2047,2047,2047,2047,2047,2047,2047,2047,2047,2047,2047,2047,2047,2047,2047,2047,2047,2047,2047,2047,2047,2047,2047,2047,2047,2047,2047,2047,2047,2047,2047,2047,2047,2047,2047,2047,2047,2047,2047,2047,2047,2047,2047,2047,2047,2047,2047,2047,2047,2047,2047,2047,2047,2047,2047,2047,508,508,507,507,506,506,506,505,505,503,502,501,501,500,498,498,498,497,497,497,497,498,498,499,499,500,500,2047,2047,2047,2047,2047,2047,2047,2047,2047,2047,2047,2047,2047,2047,2047,2047,2047,451,450,450,449,449,2047,2047,2047,2047,2047,445,444,444,441,441,440,439,439,438,437,436,435,433,432,431,431,430,429,428,427,426,425,423,422,421,420,418,417,417,416,416,414,413,413,408,408,406,406,405,404,404,402,402,401,401,399,398,398,2047,2047,2047,2047,2047,2047,2047,2047
2047,2047,2047,2047,2047,2047,2047,2047,2047,2047,2047,2047,2047,2047,2047,2047,2047,2047,2047,2047,2047,2047,2047,2047,2047,2047,2047,2047,2047,2047,2047,2047,2047,2047,2047,2047,2047,2047,2047,2047,2047,2047,2047,2047,2047,2047,624,624,624,624,625,625,625,625,626,626,627,626,626,626,625,624,624,624,624,625,625,626,626,626,625,625,624,624,624,623,624,623,623,622,622,621,621,620,620,619,619,618,617,617,617,616,616,615,615,614,614,613,613,613,612,612,612,611,610,610,610,610,609,609,609,609,609,609,609,610,610,611,611,611,612,612,612,612,613,612,613,614,613,614,615,616,616,616,616,616,616,617,617,617,617,618,619,619,619,619,619,620,620,620,620,620,620,621,621,622,623,624,625,626,626,626,627,627,628,628,629,629,635,635,635,636,637,638,638,638,639,640,641,642,643,644,644,645,2047,2047,2047,2047,2047,2047,1039,1039,1039,1039,1039,1039,1039,1039,1039,1039,1039,1039,1039,1039,1038,1039,1038,1039,1038,1038,1038,1039,1038,1038,1038,1038,1037,1037,1037,1036,1035,1035,1035,1035,1035,1036,1036,1036,1036,1036,1036,1037,1037,1036,1036,1036,1038,1037,1037,1036,1036,1036,1037,1037,1037,1037,1038,1038,1038,1038,1038,1037,1037,1037,1037,1036,1035,1034,1034,1035,1034,1034,1034,1034,1035,1035,1035,1035,1036,1035,1036,1036,1036,1036,1036,1036,1035,1036,1035,1036,1036,1035,1036,1035,1036,1036,1035,1035,1035,1035,1034,1034,1034,1035,1035,1035,1035,1035,1034,1034,1034,1034,1034,1034,1034,1034,1034,1034,1034,1034,1034,1034,1034,1034,1034,1034,1034,1034,1034,1034,1034,1033,1033,1033,1033,1033,1033,1033,1033,1033,1033,1033,1033,1032,1032,1032,1032,1033,1032,1033,1033,1033,1032,1032,1032,1032,1032,1032,1032,1032,1032,1033,1033,1032,1032,1032,1032,1032,1032,1032,1033,1033,1033,1032,1032,1032,1032,1032,1032,1032,1032,1032,1032,1031,1032,1032,1031,1032,1031,1031,1031,1031,1032,1031,1031,1031,1030,1031,1030,1030,1030,1030,1030,1030,1030,1030,1031,1030,1031,1031,1031,1031,1031,1030,1030,1029,1029,1029,1028,1028,1028,1029,1028,1028,1028,1028,1028,1028,1029,1029,1028,1028,1028,1028,1028,1028,1028,1027,1028,1028,1028,1028,1027,1027,1027,1027,1027,1027,1027,1027,1027,1027,1027,1027,1027,1027,1026,1026,1026,1027,1026,1025,1025,1026,1025,1026,1026,1026,1026,1026,1025,1025,1026,2047,2047,2047,2047,2047,2047,2047,2047,2047,2047,2047,2047,2047,2047,2047,2047,2047,2047,2047,2047,2047,2047,2047,2047,2047,2047,2047,2047,2047,2047,2047,2047,2047,2047,2047,2047,2047,2047,2047,2047,2047,2047,2047,2047,2047,2047,2047,2047,2047,2047,2047,2047,2047,2047,2047,2047,2047,2047,2047,2047,2047,2047,2047,2047,2047,510,510,510,509,508,508,507,506,506,506,505,503,502,501,501,500,499,499,499,499,499,499,500,500,500,501,500,2047,2047,2047,2047,2047,2047,2047,2047,2047,2047,2047,2047,2047,2047,2047,2047,2047,2047,2047,2047,2047,2047,2047,2047,2047,2047,445,445,444,442,441,440,440,440,439,439,438,437,437,436,435,434,432,431,431,429,429,427,427,425,423,422,421,420,419,417,416,415,414,413,413,412,411,410,408,406,405,404,403,402,402,401,401,400,399,398,397,2047,2047,2047,2047,2047,2047,2047,2047
2047,2047,2047,2047,2047,2047,2047,2047,2047,2047,2047,2047,2047,2047,2047,2047,2047,2047,2047,2047,2047,2047,2047,2047,2047,2047,2047,2047,2047,2047,2047,2047,2047,2047,2047,2047,2047,2047,2047,2047,2047,627,627,626,626,626,626,626,626,625,625,626,626,626,626,626,627,627,627,628,628,628,628,628,627,627,626,626,625,625,624,624,624,624,623,623,623,622,621,620,620,620,619,617,617,616,616,616,616,616,615,615,614,613,613,612,612,611,610,610,609,609,609,609,609,609,609,610,610,610,611,610,610,611,612,612,613,613,613,613,614,615,615,615,616,615,616,616,616,616,616,617,618,618,618,618,618,618,619,619,619,619,620,620,620,620,620,621,621,622,622,622,622,623,624,626,627,629,629,629,629,631,631,632,633,635,636,637,638,639,639,639,640,640,641,642,643,644,644,645,645,647,649,649,2047,2047,2047,1040,1040,1040,1039,1039,1039,1039,1039,1039,1039,1038,1038,1038,1038,1038,1038,1039,1038,1039,1039,1039,1039,1039,1039,1039,1039,1038,1039,1038,1038,1037,1037,1037,1036,1036,1036,1036,1037,1037,1037,1036,1037,1038,1037,1038,1038,1038,1038,1038,1038,1038,1038,1037,1037,1037,1038,1038,1037,1037,1037,1037,1037,1037,1037,1037,1037,1037,1037,1035,1035,1034,1034,1035,1034,1034,1034,1034,1034,1035,1035,1035,1036,1036,1035,1036,1036,1036,1036,1036,1035,1035,1035,1035,1035,1035,1035,1035,1036,1036,1036,1036,1035,1035,1035,1035,1035,1035,1035,1035,1035,1035,1034,1034,1034,1034,1034,1034,1034,1034,1034,1034,1034,1034,1034,1034,1034,1034,1034,1034,1034,1034,1034,1034,1034,1033,1033,1033,1033,1033,1033,1033,1033,1033,1033,1033,1033,1032,1033,1032,1033,1033,1032,1033,1032,1032,1032,1032,1032,1032,1032,1032,1032,1032,1032,1033,1033,1032,1032,1032,1032,1032,1032,1032,1032,1032,1032,1032,1032,1032,1031,1031,1032,1031,1032,1032,1031,1031,1032,1032,1032,1032,1032,1031,1031,1031,1032,1032,1032,1032,1031,1031,1031,1031,1030,1030,1030,1030,1030,1030,1031,1031,1031,1031,1031,1030,1030,1030,1029,1029,1029,1029,1028,1028,1028,1028,1028,1028,1028,1028,1028,1028,1029,1029,1028,1028,1029,1028,1028,1028,1028,1027,1028,1028,1027,1027,1027,1027,1028,1028,1027,1027,1027,1027,1027,1027,1027,1027,1027,1027,1027,1026,1026,1027,1026,1025,1025,1025,1025,1026,1026,1026,1025,1026,1026,1025,1026,2047,2047,2047,2047,2047,2047,2047,2047,2047,2047,2047,2047,2047,2047,2047,2047,2047,2047,2047,2047,2047,2047,2047,2047,2047,2047,2047,2047,2047,2047,2047,2047,2047,2047,2047,2047,2047,2047,2047,2047,2047,2047,2047,2047,2047,2047,2047,2047,2047,2047,2047,2047,2047,2047,2047,2047,2047,2047,2047,2047,2047,2047,2047,2047,2047,510,510,509,509,509,507,506,506,505,505,504,503,501,501,500,500,500,499,499,499,499,500,500,500,500,500,500,2047,2047,2047,2047,2047,2047,2047,2047,2047,2047,2047,2047,2047,2047,2047,2047,2047,2047,2047,2047,2047,2047,2047,2047,2047,2047,444,445,443,442,441,440,440,440,440,439,438,438,436,436,435,434,432,431,431,430,429,427,426,424,423,421,421,419,419,417,416,415,413,412,412,412,411,409,408,407,405,404,404,402,401,401,401,400,399,398,397,2047,2047,2047,2047,2047,2047,2047,2047
2047,2047,2047,2047,2047,2047,2047,2047,2047,2047,2047,2047,2047,2047,2047,2047,2047,2047,2047,2047,2047,2047,2047,2047,2047,2047,2047,2047,2047,2047,2047,2047,2047,2047,2047,2047,2047,2047,2047,2047,2047,627,627,626,626,626,626,626,626,625,625,626,626,626,626,626,626,627,627,628,629,629,629,628,627,627,626,626,625,624,624,624,624,624,624,623,623,622,621,620,620,620,619,617,617,616,616,616,616,616,616,615,614,613,612,612,611,610,610,609,609,609,609,609,609,609,609,610,610,611,611,611,611,612,612,612,613,613,613,613,613,614,615,615,616,615,616,616,616,616,617,617,618,618,618,618,618,619,619,619,619,619,619,619,620,620,620,620,621,622,622,622,622,623,624,625,627,629,629,629,630,632,632,633,635,636,637,638,638,639,639,639,639,640,641,642,643,643,644,645,645,646,2047,2047,2047,2047,2047,1039,1039,1040,1039,1039,1039,1039,1039,1038,1039,1038,1038,1038,1038,1038,1038,1038,1038,1039,1039,1039,1039,1039,1039,1039,1039,1038,1039,1038,1038,1037,1037,1037,1036,1037,1036,1036,1036,1037,1037,1036,1037,1038,1037,1038,1038,1038,1038,1038,1038,1037,1037,1037,1037,1037,1037,1037,1037,1037,1037,1037,1037,1037,1037,1037,1037,1037,1036,1035,1035,1034,1034,1034,1034,1034,1034,1034,1035,1035,1035,1035,1036,1036,1036,1036,1036,1036,1036,1036,1035,1035,1035,1035,1035,1035,1035,1035,1036,1036,1035,1035,1035,1035,1035,1035,1035,1035,1035,1035,1034,1034,1034,1034,1034,1034,1034,1034,1034,1034,1034,1034,1034,1034,1034,1034,1034,1034,1034,1034,1034,1034,1034,1034,1034,1033,1033,1033,1033,1033,1033,1033,1033,1033,1033,1032,1033,1032,1033,1032,1033,1033,1032,1033,1033,1033,1032,1032,1032,1032,1032,1032,1032,1032,1032,1032,1032,1033,1032,1032,1032,1032,1032,1032,1032,1032,1032,1032,1032,1032,1031,1031,1031,1031,1031,1032,1031,1031,1032,1031,1032,1032,1032,1031,1031,1031,1032,1032,1032,1032,1031,1031,1031,1031,1030,1030,1031,1030,1030,1030,1031,1031,1031,1031,1030,1030,1030,1030,1029,1029,1029,1028,1028,1028,1028,1028,1028,1028,1028,1028,1028,1028,1029,1028,1028,1028,1028,1028,1028,1028,1028,1027,1028,1028,1028,1027,1027,1027,1027,1028,1027,1027,1027,1027,1027,1027,1027,1027,1027,1027,1027,1026,1027,1027,1027,1026,1025,1026,1025,1026,1026,1026,1026,1026,1025,1025,1025,1024,2047,2047,2047,2047,2047,2047,2047,2047,2047,2047,2047,2047,2047,2047,2047,2047,2047,2047,2047,2047,2047,2047,2047,2047,2047,2047,2047,2047,2047,2047,2047,2047,2047,2047,2047,2047,2047,2047,2047,2047,2047,2047,2047,2047,2047,2047,2047,2047,2047,2047,2047,2047,2047,2047,2047,2047,2047,2047,2047,2047,2047,2047,2047,2047,510,509,509,508,508,506,506,505,505,504,503,502,500,500,500,500,499,499,499,499,500,500,501,501,501,500,500,499,2047,2047,2047,2047,2047,2047,2047,2047,2047,2047,2047,2047,2047,2047,2047,2047,2047,2047,2047,2047,2047,449,2047,447,447,444,444,443,442,441,440,440,440,440,439,438,437,436,436,435,434,432,431,430,429,428,426,425,423,422,421,420,419,418,417,416,414,413,413,412,411,410,409,407,406,405,404,404,402,401,401,401,400,399,398,397,2047,2047,2047,2047,2047,2047,2047,2047
2047,2047,2047,2047,2047,2047,2047,2047,2047,2047,2047,2047,2047,2047,2047,2047,2047,2047,2047,2047,2047,2047,2047,2047,2047,2047,2047,2047,2047,2047,2047,2047,2047,2047,2047,2047,2047,2047,627,627,627,626,626,626,625,625,626,626,626,625,625,625,626,626,625,626,626,627,627,628,629,630,629,628,628,627,627,626,625,625,624,624,623,624,623,623,623,622,621,620,619,619,618,617,616,616,616,616,615,615,615,614,613,612,612,611,610,610,609,609,609,608,609,609,608,609,609,610,610,610,611,610,611,611,611,612,612,612,612,612,613,614,615,615,615,615,616,616,616,617,618,618,618,618,618,618,618,619,619,619,619,619,619,619,619,619,619,620,620,621,621,622,622,623,625,626,628,630,630,630,632,632,633,633,636,637,637,637,638,639,639,639,639,640,641,642,643,644,644,645,645,645,2047,2047,2047,2047,2047,1039,1039,1040,1039,1039,1039,1039,1039,1039,1039,1039,1038,1038,1038,1038,1038,1038,1038,1039,1039,1039,1039,1039,1039,1039,1039,1039,1039,1038,1038,1037,1038,1037,1037,1037,1037,1036,1036,1037,1037,1037,1038,1038,1037,1037,1038,1037,1037,1037,1037,1036,1037,1036,1037,1037,1037,1037,1037,1037,1037,1037,1037,1038,1037,1037,1037,1037,1036,1035,1035,1034,1034,1034,1034,1034,1034,1034,1035,1035,1035,1035,1036,1036,1036,1036,1036,1036,1036,1036,1035,1035,1035,1035,1035,1035,1035,1035,1035,1036,1036,1036,1035,1035,1035,1035,1035,1035,1035,1034,1034,1034,1034,1034,1034,1034,1034,1034,1034,1034,1034,1034,1034,1034,1034,1034,1034,1034,1034,1034,1034,1034,1034,1034,1034,1033,1033,1033,1033,1033,1033,1033,1033,1033,1033,1033,1033,1032,1033,1032,1033,1033,1033,1033,1033,1033,1032,1032,1032,1032,1032,1032,1032,1032,1032,1032,1032,1033,1032,1032,1032,1032,1032,1032,1032,1032,1032,1032,1032,1031,1031,1031,1032,1031,1032,1032,1031,1032,1032,1031,1031,1031,1032,1031,1031,1031,1032,1032,1032,1032,1031,1031,1030,1030,1030,1030,1030,1029,1029,1030,1030,1030,1030,1030,1030,1029,1029,1029,1029,1028,1028,1028,1029,1028,1028,1028,1028,1028,1028,1028,1028,1028,1029,1029,1028,1028,1028,1028,1028,1028,1027,1027,1027,1027,1027,1028,1027,1027,1027,1027,1027,1027,1027,1027,1027,1027,1027,1027,1027,1027,1027,1026,1026,1027,1026,1025,1025,1025,1025,1025,1025,1025,1025,1025,1025,1025,1025,1024,2047,2047,2047,2047,2047,2047,2047,2047,2047,2047,2047,2047,2047,2047,2047,2047,2047,2047,2047,2047,2047,2047,2047,2047,2047,2047,2047,2047,2047,2047,2047,2047,2047,2047,2047,2047,2047,2047,2047,2047,2047,2047,2047,2047,2047,2047,2047,2047,2047,2047,2047,2047,2047,2047,2047,2047,2047,2047,2047,2047,2047,2047,2047,2047,510,509,509,509,508,506,506,505,505,503,501,500,500,499,499,499,499,499,500,500,500,500,501,500,501,501,501,500,2047,2047,2047,2047,2047,2047,2047,2047,2047,2047,2047,2047,2047,2047,2047,2047,2047,2047,2047,2047,2047,448,447,447,446,445,445,443,442,441,441,440,440,440,439,438,437,436,436,435,433,432,431,430,429,428,426,425,423,422,421,420,419,419,417,416,415,414,413,412,411,410,409,408,407,405,404,404,402,401,401,401,400,399,398,397,2047,2047,2047,2047,2047,2047,2047,2047
2047,2047,2047,2047,2047,2047,2047,2047,2047,2047,2047,2047,2047,2047,2047,2047,2047,2047,2047,2047,2047,2047,2047,2047,2047,2047,2047,2047,2047,2047,2047,2047,2047,2047,2047,2047,2047,2047,627,627,627,626,626,626,625,626,626,626,626,626,625,626,626,625,625,625,626,627,627,629,630,630,629,628,628,627,627,626,625,625,624,625,623,624,623,623,622,622,621,620,619,619,617,616,616,615,615,615,614,615,614,613,613,612,611,610,610,610,609,609,609,608,608,609,608,608,609,610,610,611,611,611,611,611,611,611,611,611,612,612,612,613,614,614,615,615,616,616,616,617,618,618,619,619,619,619,619,619,619,619,619,619,619,619,619,619,619,620,620,621,621,621,621,622,624,626,630,631,630,631,632,633,633,633,636,636,636,637,638,638,639,638,639,639,641,642,643,644,644,644,645,645,645,2047,2047,2047,2047,2047,1039,1040,1039,1039,1039,1039,1039,1039,1039,1038,1038,1038,1038,1038,1038,1038,1038,1038,1039,1039,1039,1039,1039,1039,1039,1039,1039,1038,1038,1038,1038,1037,1036,1036,1037,1037,1038,1038,1038,1038,1039,1038,1037,1037,1037,1037,1037,1037,1036,1036,1036,1037,1037,1037,1037,1037,1037,1037,1037,1037,1037,1037,1037,1037,1037,1037,1036,1035,1035,1034,1034,1034,1034,1034,1035,1035,1035,1035,1035,1035,1036,1036,1036,1036,1036,1036,1036,1035,1035,1035,1035,1034,1034,1034,1035,1034,1035,1035,1035,1035,1035,1035,1035,1035,1035,1035,1035,1035,1035,1034,1034,1034,1034,1034,1034,1034,1034,1034,1034,1034,1034,1034,1034,1034,1034,1034,1034,1034,1034,1034,1034,1034,1034,1033,1033,1033,1033,1033,1033,1033,1033,1033,1033,1033,1033,1032,1033,1032,1033,1033,1033,1033,1033,1033,1033,1032,1032,1032,1032,1032,1032,1032,1032,1032,1032,1032,1032,1032,1032,1032,1032,1032,1032,1032,1032,1032,1031,1032,1032,1031,1032,1032,1032,1032,1032,1032,1032,1032,1032,1032,1032,1031,1031,1032,1032,1032,1032,1032,1031,1031,1030,1030,1030,1030,1030,1030,1030,1030,1030,1030,1030,1030,1030,1029,1029,1029,1029,1029,1029,1029,1028,1028,1028,1028,1028,1028,1028,1028,1028,1028,1029,1029,1028,1028,1028,1028,1028,1027,1027,1027,1027,1028,1027,1027,1027,1027,1027,1027,1027,1027,1027,1027,1027,1027,1027,1027,1027,1027,1026,1026,1026,1027,1026,1026,1026,1026,1025,1025,1026,1025,1025,1025,1024,1025,1025,1024,2047,2047,2047,2047,2047,2047,2047,2047,2047,2047,2047,2047,2047,2047,2047,2047,2047,2047,2047,2047,2047,2047,2047,2047,2047,2047,2047,2047,2047,2047,2047,2047,2047,2047,2047,2047,2047,2047,2047,2047,2047,2047,2047,2047,2047,2047,2047,2047,2047,2047,2047,2047,2047,2047,2047,2047,2047,2047,2047,2047,2047,2047,2047,2047,2047,2047,509,508,508,506,505,505,504,503,502,500,500,499,499,500,500,499,500,500,500,501,501,501,501,501,501,499,2047,2047,2047,2047,2047,2047,2047,2047,2047,2047,2047,2047,2047,2047,2047,2047,2047,2047,2047,2047,2047,447,446,446,446,445,445,443,442,441,440,440,440,439,438,437,437,436,435,433,432,432,430,429,428,427,426,425,423,422,421,420,419,419,417,416,415,413,412,412,411,410,409,408,407,405,404,404,403,402,401,401,400,399,398,397,2047,2047,2047,2047,2047,2047,2047,2047
2047,2047,2047,2047,2047,2047,2047,2047,2047,2047,2047,2047,2047,2047,2047,2047,2047,2047,2047,2047,2047,2047,2047,2047,2047,2047,2047,2047,2047,2047,2047,2047,2047,2047,2047,2047,2047,2047,2047,2047,626,626,626,626,626,626,626,626,626,626,625,625,625,625,625,625,626,627,628,630,630,630,629,628,628,627,627,626,625,625,624,624,623,624,623,623,622,621,620,619,618,618,617,616,615,615,614,614,613,614,614,613,612,611,610,610,610,610,609,609,609,608,608,608,608,608,609,609,612,612,612,611,610,610,609,609,610,610,611,611,611,612,614,614,615,615,616,616,616,617,618,618,619,619,619,619,619,619,619,619,619,619,619,619,619,619,619,620,620,621,622,622,621,623,624,625,2047,631,631,633,634,634,634,634,635,636,635,636,636,638,638,638,638,639,641,642,643,643,644,644,645,645,2047,2047,2047,2047,2047,2047,2047,1040,2047,1040,1040,1039,1040,1039,1039,1038,1038,1038,1038,1038,1038,1038,1038,1038,1039,1039,1039,1039,1039,1039,1039,1039,1039,1039,1038,1038,1038,1037,1036,1036,1037,1037,1039,1039,1037,1037,1038,1038,1037,1037,1037,1036,1036,1037,1036,1036,1037,1037,1037,1037,1037,1037,1037,1037,1036,1036,1036,1037,1037,1037,1037,1037,1036,1035,1035,1034,1034,1034,1034,1034,1035,1035,1035,1035,1036,1036,1036,1036,1035,1035,1036,1035,1035,1035,1034,1034,1034,1034,1034,1034,1034,1034,1035,1035,1035,1035,1035,1035,1035,1035,1035,1034,1035,1034,1035,1035,1034,1035,1034,1034,1034,1035,1034,1034,1034,1034,1034,1034,1034,1034,1034,1034,1034,1034,1034,1034,1034,1034,1034,1033,1033,1033,1033,1033,1033,1033,1033,1033,1033,1033,1033,1032,1033,1032,1033,1033,1032,1033,1032,1033,1032,1032,1032,1032,1032,1032,1032,1032,1032,1032,1032,1032,1032,1032,1032,1032,1032,1032,1032,1032,1032,1032,1032,1032,1032,1031,1032,1032,1032,1032,1032,1032,1032,1032,1032,1031,1031,1031,1031,1031,1032,1032,1032,1032,1031,1031,1031,1030,1030,1030,1030,1029,1029,1029,1029,1029,1030,1030,1029,1029,1029,1029,1029,1029,1029,1028,1028,1028,1028,1028,1028,1028,1028,1028,1028,1028,1028,1028,1028,1027,1028,1028,1028,1027,1027,1027,1027,1028,1028,1028,1027,1027,1027,1027,1027,1027,1027,1027,1027,1027,1027,1027,1027,1027,1026,1026,1026,1027,1026,1025,1025,1025,1025,1025,1026,1025,1025,1024,1024,1024,1024,1023,1023,2047,2047,2047,2047,2047,2047,2047,2047,2047,2047,2047,2047,2047,2047,2047,2047,2047,2047,2047,2047,2047,2047,2047,2047,2047,2047,2047,2047,2047,2047,2047,2047,2047,2047,2047,2047,2047,2047,2047,2047,2047,2047,2047,2047,2047,2047,2047,2047,2047,2047,2047,2047,2047,2047,2047,2047,2047,2047,2047,2047,2047,2047,2047,2047,2047,508,508,508,506,505,505,504,502,501,500,499,499,499,499,499,499,500,500,500,501,501,501,501,501,501,500,497,2047,495,494,2047,2047,2047,2047,2047,2047,2047,2047,2047,2047,2047,2047,2047,2047,2047,2047,2047,446,446,446,446,444,444,442,442,441,440,440,440,439,437,437,436,435,434,433,432,431,430,429,428,427,426,425,422,421,421,420,420,419,418,416,415,413,412,411,410,409,408,407,406,405,404,404,403,401,401,400,399,398,397,396,2047,2047,2047,2047,2047,2047,2047,2047
2047,2047,2047,2047,2047,2047,2047,2047,2047,2047,2047,2047,2047,2047,2047,2047,2047,2047,2047,2047,2047,2047,2047,2047,2047,2047,2047,2047,2047,2047,2047,2047,2047,2047,2047,2047,2047,2047,2047,2047,2047,626,626,626,626,626,626,626,626,626,625,625,625,625,624,624,625,626,627,631,631,630,630,628,628,628,627,627,625,625,624,625,623,624,623,623,622,621,620,619,618,618,617,616,616,615,615,614,613,613,613,612,612,611,610,610,610,609,609,609,609,609,609,608,609,608,609,609,2047,609,610,610,609,609,609,608,609,609,610,610,611,612,613,614,614,614,616,616,616,617,618,619,619,619,619,619,619,619,619,619,619,619,618,618,618,618,619,619,619,620,620,621,620,2047,2047,2047,2047,2047,2047,2047,635,635,634,634,634,635,635,635,638,638,638,638,638,639,641,642,643,644,644,644,646,646,647,2047,2047,2047,2047,2047,2047,2047,2047,2047,2047,1039,1039,1039,1038,1038,1038,1038,1038,1038,1038,1038,1038,1038,1038,1039,1039,1039,1039,1039,1039,1038,1039,1038,1038,1038,1037,1036,1035,1035,1035,1039,1039,1037,1037,1037,1038,1037,1037,1036,1037,1036,1036,1036,1036,1036,1036,1037,1036,1037,1037,1036,1036,1036,1036,1036,1036,1036,1036,1036,1036,1036,1036,1035,1035,1035,1034,1034,1034,1035,1035,1035,1035,1035,1035,1035,1036,1035,1035,1035,1035,1035,1035,1034,1034,1034,1034,1034,1034,1034,1034,1035,1035,1035,1035,1036,1035,1036,1035,1035,1035,1035,1035,1035,1035,1035,1035,1035,1034,1034,1034,1035,1034,1034,1034,1034,1034,1034,1034,1034,1034,1033,1033,1033,1033,1034,1033,1033,1034,1033,1033,1033,1033,1033,1033,1033,1033,1033,1033,1033,1033,1033,1033,1033,1033,1033,1033,1033,1032,1033,1032,1032,1032,1032,1032,1032,1032,1032,1032,1032,1032,1032,1032,1032,1032,1032,1032,1032,1031,1032,1032,1032,1032,1032,1032,1032,1032,1032,1032,1032,1032,1032,1032,1032,1032,1031,1031,1032,1031,1031,1032,1032,1032,1032,1031,1031,1031,1030,1030,1029,1029,1029,1029,1029,1029,1029,1030,1030,1028,1028,1029,1029,1029,1029,1029,1029,1028,1028,1028,1028,1028,1028,1028,1028,1028,1028,1028,1028,1028,1027,1027,1028,1028,1028,1028,1028,1028,1028,1027,1027,1027,1027,1027,1027,1027,1027,1027,1026,1026,1026,1027,1026,1026,1026,1026,1026,1026,1027,1026,1026,1026,1026,1025,1026,1025,1025,1025,1024,1024,1024,1024,1023,1023,1023,1023,2047,2047,2047,2047,2047,2047,2047,2047,2047,2047,2047,2047,2047,2047,2047,2047,2047,2047,2047,2047,2047,2047,2047,2047,2047,2047,2047,2047,2047,2047,2047,2047,2047,2047,2047,2047,2047,2047,2047,2047,2047,2047,2047,2047,2047,2047,2047,2047,2047,2047,2047,2047,2047,2047,2047,2047,2047,2047,2047,2047,2047,2047,506,506,505,505,505,504,505,503,502,502,501,500,500,500,500,501,501,501,502,502,502,502,502,502,500,499,497,495,2047,2047,2047,2047,2047,2047,2047,2047,2047,2047,2047,2047,2047,2047,2047,2047,2047,2047,449,450,448,446,445,443,442,441,441,441,440,440,440,440,439,438,437,436,434,433,432,431,430,429,428,428,426,425,424,420,418,418,417,416,416,415,414,413,412,411,409,409,408,407,406,405,404,403,402,401,400,400,399,397,396,396,394,2047,2047,2047,2047,2047,2047,2047,2047
2047,2047,2047,2047,2047,2047,2047,2047,2047,2047,2047,2047,2047,2047,2047,2047,2047,2047,2047,2047,2047,2047,2047,2047,2047,2047,2047,2047,2047,2047,2047,2047,2047,2047,2047,2047,2047,629,629,628,629,629,628,628,627,627,628,627,626,626,626,625,626,625,625,625,626,630,629,629,628,628,627,627,626,625,625,625,624,624,623,623,622,621,621,620,619,617,616,615,614,614,613,613,613,612,612,611,610,610,610,609,609,2047,2047,611,609,609,611,611,610,611,611,611,610,609,610,610,609,609,609,609,609,610,610,610,610,612,613,614,615,616,617,617,617,616,617,618,618,619,619,619,619,619,618,617,617,616,615,614,614,610,611,611,610,610,610,612,612,2047,2047,2047,2047,2047,2047,2047,631,631,632,632,633,634,635,634,635,636,636,636,636,637,638,639,639,639,646,646,647,647,647,647,647,2047,2047,2047,2047,2047,2047,2047,2047,2047,2047,2047,2047,1039,1039,1039,1039,1039,1039,1038,1038,1038,1038,1038,1038,1038,1038,1038,1038,1039,1039,1039,1038,1038,1038,1038,1038,1038,1037,1037,1037,1037,1037,1037,1036,1037,1037,1036,1037,1037,1036,1036,1036,1036,1037,1036,1036,1036,1036,1036,1036,1036,1036,1036,1037,1036,1036,1036,1036,1037,1037,1037,1037,1037,1037,1035,1035,1035,1035,1035,1035,1035,1036,1036,1036,1036,1036,1036,1036,1036,1036,1036,1035,1035,1035,1035,1035,1035,1034,1034,1034,1034,1035,1035,1035,1035,1035,1036,1036,1036,1035,1035,1035,1035,1035,1035,1035,1035,1035,1035,1035,1035,1034,1035,1034,1034,1034,1034,1034,1034,1034,1034,1034,1033,1033,1033,1034,1034,1033,1033,1034,1033,1033,1033,1033,1033,1033,1033,1033,1033,1033,1033,1033,1033,1033,1033,1032,1033,1033,1033,1033,1033,1033,1032,1032,1032,1032,1032,1032,1032,1032,1032,1032,1032,1032,1032,1032,1032,1032,1032,1031,1031,1032,1032,1032,1032,1032,1032,1032,1032,1032,1032,1032,1032,1032,1032,1031,1031,1031,1032,1031,1031,1032,1032,1032,1032,1031,1030,1030,1030,1030,1029,1029,1029,1029,1029,1029,1030,1030,1030,1030,1028,1030,1030,1029,1029,1028,1028,1028,1028,1028,1028,1028,1028,1028,1028,1028,1028,1028,1028,1028,1028,1028,1028,1028,1028,1028,1028,1028,1028,1028,1028,1027,1027,1027,1027,1027,1027,1027,1026,1026,1026,1026,1026,1026,1026,1026,1026,1026,1027,1026,1026,1026,1026,1025,1026,1025,1025,1025,1024,1024,1024,1024,1024,1023,1023,1023,2047,2047,2047,2047,2047,2047,2047,2047,2047,2047,2047,2047,2047,2047,2047,2047,2047,2047,2047,2047,2047,2047,2047,2047,2047,2047,2047,2047,2047,2047,2047,2047,2047,2047,2047,2047,2047,2047,2047,2047,2047,2047,2047,2047,2047,2047,2047,2047,2047,2047,2047,2047,2047,2047,2047,2047,2047,2047,2047,2047,2047,2047,507,506,506,505,505,505,504,502,502,501,501,500,500,499,500,501,501,501,501,502,502,502,502,502,501,498,496,495,2047,2047,2047,2047,2047,2047,2047,2047,2047,2047,2047,2047,2047,2047,2047,2047,2047,449,449,447,448,446,445,443,444,441,441,441,440,440,440,439,439,439,437,436,434,433,432,432,431,430,428,428,426,425,421,420,419,417,416,416,416,415,414,413,412,411,409,409,408,407,406,404,404,403,402,401,400,400,399,397,396,396,394,2047,2047,2047,2047,2047,2047,2047,2047
2047,2047,2047,2047,2047,2047,2047,2047,2047,2047,2047,2047,2047,2047,2047,2047,2047,2047,2047,2047,2047,2047,2047,2047,2047,2047,2047,2047,2047,2047,2047,2047,2047,2047,2047,2047,2047,627,627,629,629,629,629,628,627,628,628,627,626,626,625,625,625,625,625,625,626,630,629,629,628,627,627,626,626,625,625,624,624,623,623,622,622,621,620,617,617,616,616,614,613,614,613,613,613,612,612,611,610,609,609,609,2047,2047,2047,2047,611,609,609,610,610,610,610,610,610,609,609,608,609,609,609,609,609,610,610,611,611,612,613,614,615,616,617,617,617,616,617,617,618,619,619,619,619,619,618,617,616,616,614,613,612,610,610,610,610,610,611,611,612,612,2047,2047,2047,2047,2047,2047,631,631,632,633,633,634,634,634,635,635,635,636,636,637,638,639,640,642,646,646,647,647,647,647,647,2047,2047,2047,2047,2047,2047,2047,2047,2047,2047,2047,2047,2047,1039,1039,1039,1038,1039,1038,1038,1038,1038,1038,1038,1038,1038,1038,1038,1038,1038,1038,1038,1038,1038,1038,1038,1038,1038,1037,1037,1038,1038,1038,1037,1037,1037,1037,1038,1037,1036,1036,1036,1036,1037,1036,1036,1036,1036,1036,1036,1036,1036,1036,1036,1036,1036,1036,1036,1037,1037,1037,1037,1037,1037,1035,1035,1035,1035,1035,1035,1035,1035,1036,1036,1036,1036,1036,1036,1036,1036,1036,1036,1035,1035,1035,1035,1035,1034,1034,1034,1034,1034,1034,1035,1035,1035,1035,1036,1036,1036,1036,1035,1035,1035,1035,1035,1035,1034,1034,1034,1034,1034,1035,1034,1034,1034,1034,1034,1034,1034,1034,1034,1033,1033,1033,1033,1033,1033,1033,1033,1033,1033,1033,1033,1033,1033,1033,1033,1033,1033,1033,1033,1033,1033,1033,1032,1033,1033,1033,1032,1033,1033,1032,1032,1032,1032,1032,1032,1032,1032,1032,1032,1032,1032,1032,1032,1032,1032,1032,1031,1031,1032,1032,1032,1032,1032,1032,1032,1032,1032,1032,1031,1031,1031,1031,1031,1031,1031,1031,1031,1031,1031,1031,1031,1031,1030,1030,1030,1030,1029,1029,1029,1029,1029,1029,1029,1029,1030,1030,1028,1028,1029,1029,1029,1028,1028,1028,1028,1028,1027,1027,1028,1028,1028,1028,1028,1028,1028,1028,1028,1027,1028,1028,1028,1027,1028,1028,1028,1028,1027,1027,1027,1027,1027,1027,1027,1027,1027,1026,1026,1027,1027,1026,1026,1026,1026,1026,1027,1027,1026,1026,1026,1026,1025,1025,1025,1025,1025,1024,1024,1024,1024,1024,1024,1023,1023,2047,2047,2047,2047,2047,2047,2047,2047,2047,2047,2047,2047,2047,2047,2047,2047,2047,2047,2047,2047,2047,2047,2047,2047,2047,2047,2047,2047,2047,2047,2047,2047,2047,2047,2047,2047,2047,2047,2047,2047,2047,2047,2047,2047,2047,2047,2047,2047,2047,2047,2047,2047,2047,2047,2047,2047,2047,2047,2047,2047,2047,2047,506,506,505,505,505,504,503,501,501,501,500,500,499,499,500,501,501,501,501,501,501,501,501,500,499,498,497,495,494,2047,2047,2047,2047,2047,2047,2047,2047,2047,2047,2047,2047,2047,2047,2047,2047,448,447,447,447,446,445,444,444,441,441,441,440,440,439,439,439,439,436,435,434,433,432,432,430,429,428,427,425,424,421,420,419,417,416,415,415,415,414,413,412,411,409,409,408,407,406,404,403,402,401,401,400,400,399,397,396,396,394,2047,2047,2047,2047,2047,2047,2047,2047
2047,2047,2047,2047,2047,2047,2047,2047,2047,2047,2047,2047,2047,2047,2047,2047,2047,2047,2047,2047,2047,2047,2047,2047,2047,2047,2047,2047,2047,2047,2047,2047,2047,2047,2047,2047,2047,626,626,626,629,629,629,629,627,627,628,627,625,626,625,625,626,625,625,625,630,630,630,629,628,627,626,625,625,625,624,624,623,623,623,622,621,621,620,617,617,616,615,614,614,614,613,613,613,612,612,610,610,609,609,2047,2047,2047,2047,2047,611,611,610,610,609,609,610,610,610,609,609,609,609,609,609,609,609,610,611,611,612,612,613,613,615,615,616,617,617,616,617,617,617,618,618,619,618,618,617,616,616,615,613,612,611,610,610,610,610,610,611,611,612,612,612,2047,2047,2047,2047,2047,631,631,632,632,633,634,634,634,635,635,636,636,636,637,638,639,640,642,645,646,647,646,646,647,647,2047,2047,2047,2047,2047,2047,2047,2047,2047,2047,2047,2047,2047,2047,1039,1039,1038,1038,1038,1038,1038,1038,1038,1039,1039,1039,1038,1039,1039,1039,1038,1038,1038,1038,1038,1038,1038,1038,1038,1038,1038,1038,1038,1038,1037,1037,1036,1039,1037,1036,1036,1036,1036,1037,1037,1036,1036,1036,1036,1036,1036,1036,1036,1036,1036,1036,1036,1036,1037,1037,1037,1037,1037,1037,1035,1035,1035,1035,1035,1035,1035,1035,1035,1036,1036,1036,1036,1036,1036,1036,1036,1036,1036,1035,1035,1035,1035,1034,1034,1034,1034,1034,1034,1034,1034,1034,1035,1035,1035,1035,1035,1035,1035,1035,1034,1035,1034,1034,1034,1034,1034,1034,1034,1034,1034,1034,1034,1034,1034,1034,1034,1034,1033,1033,1033,1033,1033,1033,1033,1033,1032,1033,1033,1033,1033,1033,1033,1033,1033,1033,1033,1033,1033,1032,1032,1032,1032,1032,1032,1032,1032,1032,1032,1032,1032,1032,1032,1032,1032,1032,1032,1032,1032,1032,1032,1032,1032,1032,1032,1031,1032,1032,1032,1032,1032,1032,1032,1032,1032,1032,1032,1031,1031,1031,1031,1031,1031,1031,1031,1031,1031,1031,1031,1031,1031,1030,1030,1030,1030,1030,1029,1029,1029,1029,1029,1029,1029,1029,1029,1028,1028,1029,1029,1029,1028,1028,1028,1028,1027,1027,1027,1027,1028,1028,1028,1028,1028,1028,1028,1027,1027,1027,1027,1027,1027,1027,1027,1027,1027,1027,1027,1027,1027,1027,1027,1027,1027,1027,1027,1026,1027,1026,1026,1026,1026,1026,1026,1026,1026,1025,1025,1025,1025,1025,1025,1025,1025,1025,1024,1024,1024,1024,1024,1024,1024,1024,2047,2047,2047,2047,2047,2047,2047,2047,2047,2047,2047,2047,2047,2047,2047,2047,2047,2047,2047,2047,2047,2047,2047,2047,2047,2047,2047,2047,2047,2047,2047,2047,2047,2047,2047,2047,2047,2047,2047,2047,2047,2047,2047,2047,2047,2047,2047,2047,2047,2047,2047,2047,2047,2047,2047,2047,2047,2047,2047,2047,2047,2047,2047,505,505,504,505,503,502,501,500,500,500,500,499,499,500,500,500,500,501,501,501,501,500,499,499,498,496,495,494,494,2047,2047,2047,2047,2047,2047,2047,2047,2047,2047,2047,2047,2047,2047,2047,447,447,446,446,446,445,445,441,441,440,440,439,439,438,438,438,437,436,435,434,433,433,432,431,429,428,427,426,424,422,421,420,417,416,415,415,415,414,413,412,411,409,408,408,407,406,404,403,402,401,401,400,399,398,397,396,396,394,2047,2047,2047,2047,2047,2047,2047,2047
2047,2047,2047,2047,2047,2047,2047,2047,2047,2047,2047,2047,2047,2047,2047,2047,2047,2047,2047,2047,2047,2047,2047,2047,2047,2047,2047,2047,2047,2047,2047,2047,2047,2047,2047,2047,2047,626,626,629,629,629,629,628,627,626,626,625,624,624,623,623,623,623,630,630,631,631,630,629,627,626,625,625,625,624,624,624,623,623,623,622,621,620,619,618,617,616,615,614,614,614,613,613,613,613,2047,2047,2047,2047,2047,2047,2047,2047,2047,2047,610,610,610,610,610,609,610,609,609,609,609,609,609,609,609,610,610,612,612,612,612,613,613,613,614,615,616,617,617,616,617,617,617,617,617,618,618,618,617,616,615,615,613,612,611,609,609,609,610,610,610,611,611,612,612,614,615,2047,2047,2047,631,631,632,633,633,634,634,634,635,635,635,636,636,637,639,640,640,644,646,647,647,647,647,647,647,2047,2047,2047,2047,2047,2047,2047,2047,2047,2047,2047,2047,2047,2047,1039,1038,1038,1038,1038,1038,1038,1038,1038,1039,1039,1038,1038,1039,1039,1039,1039,1038,1038,1038,1038,1038,1038,1038,1038,1037,1038,1038,1038,1038,1038,1037,1036,1038,1038,1036,1036,1036,1036,1037,1037,1036,1036,1036,1035,1036,1036,1036,1036,1036,1036,1036,1036,1036,1036,1037,1037,1037,1037,1037,1035,1035,1035,1035,1035,1035,1035,1035,1035,1036,1036,1036,1036,1036,1036,1036,1036,1036,1036,1035,1035,1035,1034,1034,1034,1034,1034,1034,1034,1034,1035,1034,1035,1035,1035,1035,1035,1035,1034,1034,1034,1034,1034,1034,1034,1034,1034,1034,1035,1034,1034,1034,1034,1034,1034,1034,1034,1034,1033,1033,1033,1033,1033,1033,1033,1033,1032,1032,1032,1032,1032,1033,1033,1033,1033,1033,1033,1033,1033,1033,1032,1033,1032,1032,1032,1032,1032,1032,1032,1032,1032,1032,1032,1032,1032,1032,1032,1032,1032,1032,1032,1032,1032,1032,1032,1031,1032,1032,1032,1032,1032,1032,1032,1032,1032,1032,1031,1031,1031,1031,1031,1031,1031,1031,1031,1031,1031,1031,1031,1031,1031,1030,1030,1030,1029,1029,1029,1029,1029,1029,1029,1029,1029,1029,1029,1029,1029,1029,1029,1029,1028,1028,1028,1028,1027,1027,1027,1027,1028,1028,1028,1028,1028,1028,1028,1028,1027,1027,1027,1027,1027,1027,1027,1027,1027,1027,1027,1027,1027,1027,1027,1027,1027,1027,1027,1026,1027,1026,1026,1026,1026,1026,1026,1026,1025,1025,1024,1025,1025,1025,1025,1025,1025,1024,1024,1024,1024,1024,1024,1024,1023,1024,2047,2047,2047,2047,2047,2047,2047,2047,2047,2047,2047,2047,2047,2047,2047,2047,2047,2047,2047,2047,2047,2047,2047,2047,2047,2047,2047,2047,2047,2047,2047,2047,2047,2047,2047,2047,2047,2047,2047,2047,2047,2047,2047,2047,2047,2047,2047,2047,2047,2047,2047,2047,2047,2047,2047,2047,2047,2047,2047,2047,2047,2047,2047,505,505,504,504,503,502,501,501,501,500,500,499,499,500,500,500,500,500,500,500,500,499,499,498,497,496,495,495,494,2047,2047,2047,2047,2047,2047,2047,2047,2047,2047,2047,2047,2047,2047,2047,446,446,446,445,444,445,445,441,440,440,2047,438,438,438,437,437,436,435,434,434,433,432,432,431,429,428,428,427,426,422,421,419,417,416,415,415,415,414,413,413,412,409,408,408,407,406,404,403,402,401,401,400,400,399,397,396,396,393,2047,2047,2047,2047,2047,2047,2047,2047
2047,2047,2047,2047,2047,2047,2047,2047,2047,2047,2047,2047,2047,2047,2047,2047,2047,2047,2047,2047,2047,2047,2047,2047,2047,2047,2047,2047,2047,2047,2047,2047,2047,2047,2047,2047,2047,626,626,625,625,629,628,628,626,625,626,625,623,622,622,622,618,618,630,630,630,631,630,629,628,626,625,625,625,624,624,624,623,623,622,622,621,620,619,619,618,616,615,614,614,613,613,613,613,2047,2047,2047,2047,2047,2047,2047,2047,2047,2047,610,610,610,610,610,609,609,609,609,609,609,609,608,609,609,609,609,609,610,611,611,612,612,613,613,614,615,616,616,617,616,616,616,616,617,616,617,617,617,616,615,615,614,613,612,611,610,610,610,610,610,610,611,611,612,612,614,615,2047,2047,2047,631,631,631,632,633,633,634,634,634,635,635,636,636,638,639,640,640,644,646,647,647,647,647,647,2047,2047,2047,2047,2047,2047,2047,2047,2047,2047,2047,2047,2047,2047,2047,1038,1038,1038,1038,1038,1038,1038,1039,1039,1039,1039,1039,1039,1039,1039,1038,1038,1038,1038,1038,1038,1038,1038,1038,1037,1037,1038,1038,1038,1038,1038,1038,1038,2047,1038,1037,1037,1037,1036,1037,1037,1036,1036,1036,1035,1035,1036,1035,1035,1036,1035,1035,1036,1036,1036,1036,1036,1036,1036,1036,1035,1035,1035,1035,1035,1035,1035,1035,1035,1035,1036,1036,1036,1036,1036,1036,1036,1036,1036,1035,1035,1035,1035,1035,1035,1034,1034,1034,1034,1034,1034,1034,1034,1035,1034,1034,1034,1034,1034,1034,1034,1034,1034,1034,1034,1034,1034,1034,1034,1034,1034,1034,1034,1034,1034,1034,1034,1033,1033,1033,1033,1033,1033,1033,1033,1033,1032,1032,1032,1032,1032,1032,1032,1032,1032,1032,1032,1032,1032,1032,1032,1032,1032,1032,1032,1032,1032,1032,1032,1032,1032,1032,1032,1032,1032,1032,1032,1032,1032,1032,1032,1032,1032,1032,1032,1032,1032,1032,1032,1032,1032,1032,1032,1032,1032,1032,1031,1031,1031,1031,1031,1031,1031,1031,1031,1031,1031,1031,1031,1031,1031,1030,1030,1030,1030,1030,1029,1029,1030,1029,1029,1029,1029,1029,1029,1029,1028,1029,1029,1028,1028,1028,1028,1028,1027,1028,1027,1028,1028,1028,1027,1028,1028,1028,1028,1027,1027,1027,1027,1027,1027,1027,1027,1027,1027,1027,1027,1028,1027,1027,1027,1027,1027,1027,1027,1026,1026,1026,1026,1026,1025,1026,1026,1026,1026,1025,1024,1025,1025,1025,1025,1025,1025,1024,1024,1024,1024,1023,1024,1024,1023,1023,2047,2047,2047,2047,2047,2047,2047,2047,2047,2047,2047,2047,2047,2047,2047,2047,2047,2047,2047,2047,2047,2047,2047,2047,2047,2047,2047,2047,2047,2047,2047,2047,2047,2047,2047,2047,2047,2047,2047,2047,2047,2047,2047,2047,2047,2047,2047,2047,2047,2047,2047,2047,2047,2047,2047,2047,2047,2047,2047,2047,2047,2047,2047,2047,505,504,503,502,502,501,500,500,500,499,498,498,499,499,499,499,499,499,499,499,499,498,497,497,496,495,495,494,494,2047,2047,2047,2047,2047,2047,2047,2047,2047,2047,2047,2047,2047,2047,446,446,446,445,444,446,444,440,2047,440,2047,437,437,437,437,437,436,435,435,434,433,432,431,430,429,428,428,427,426,422,421,419,417,416,416,415,415,414,413,412,411,409,409,408,407,405,404,403,402,401,400,400,399,399,397,395,394,393,2047,2047,2047,2047,2047,2047,2047,2047
2047,2047,2047,2047,2047,2047,2047,2047,2047,2047,2047,2047,2047,2047,2047,2047,2047,2047,2047,2047,2047,2047,2047,2047,2047,2047,2047,2047,2047,2047,2047,2047,2047,2047,2047,2047,2047,2047,2047,622,629,629,628,627,625,624,625,624,622,622,621,619,618,618,638,633,633,631,630,630,627,625,625,624,624,624,624,624,623,622,622,621,621,620,619,617,617,616,615,614,613,613,613,613,614,2047,2047,2047,2047,2047,2047,2047,2047,2047,2047,609,609,609,609,609,609,609,608,609,609,609,608,608,609,609,609,609,609,610,611,611,612,612,613,613,614,614,615,616,616,615,616,616,616,616,616,616,616,616,616,615,614,614,613,612,611,610,610,610,609,609,609,610,611,612,612,614,614,614,2047,2047,631,631,632,632,633,633,633,633,634,634,635,635,636,638,639,640,640,644,646,647,647,646,647,648,2047,2047,2047,2047,2047,2047,2047,2047,2047,2047,2047,2047,2047,2047,2047,1038,1038,1038,1038,1038,1038,1038,1039,1039,1039,1039,1038,1038,1038,1038,1038,1038,1038,1038,1038,1038,1038,1038,1038,1037,1038,1038,1038,1038,1037,2047,2047,2047,1037,1037,1036,1036,1037,1036,1037,1037,1036,1036,1036,1035,1035,1036,1036,1036,1036,1036,1036,1036,1036,1036,1036,1036,1036,1036,1036,1035,1035,1035,1035,1035,1035,1035,1035,1035,1035,1035,1035,1036,1036,1036,1035,1035,1035,1036,1035,1035,1035,1035,1035,1035,1034,1034,1034,1034,1034,1034,1034,1034,1034,1034,1034,1034,1034,1034,1034,1034,1034,1034,1034,1034,1034,1034,1034,1035,1035,1034,1035,1034,1034,1034,1034,1034,1033,1033,1033,1033,1033,1033,1033,1033,1033,1032,1032,1032,1032,1032,1032,1032,1032,1032,1032,1032,1032,1032,1032,1032,1032,1032,1032,1032,1032,1032,1032,1032,1032,1032,1032,1032,1032,1032,1032,1032,1032,1032,1032,1032,1032,1032,1032,1032,1032,1032,1032,1032,1032,1032,1032,1032,1032,1032,1032,1031,1031,1031,1031,1031,1031,1031,1031,1031,1031,1030,1030,1031,1031,1031,1030,1030,1030,1030,1030,1029,1030,1030,1029,1028,1028,1028,1029,1029,1029,1029,1030,1029,1029,1028,1028,1028,1028,1028,1028,1028,1027,1027,1028,1027,1028,1028,1027,1027,1027,1027,1027,1027,1027,1027,1027,1027,1027,1027,1027,1027,1027,1027,1027,1027,1027,1027,1027,1027,1027,1026,1027,1026,1026,1026,1026,1026,1026,1026,1026,1025,1025,1025,1025,1025,1025,1025,1025,1025,1024,1024,1023,2047,2047,2047,2047,2047,2047,2047,2047,2047,2047,2047,2047,2047,2047,2047,2047,2047,2047,2047,2047,2047,2047,2047,2047,2047,2047,2047,2047,2047,2047,2047,2047,2047,2047,2047,2047,2047,2047,2047,2047,2047,2047,2047,2047,2047,2047,2047,2047,2047,2047,2047,2047,2047,2047,2047,2047,2047,2047,2047,2047,2047,2047,2047,2047,2047,2047,504,503,503,502,502,501,501,501,499,499,499,499,499,499,500,500,500,500,500,499,499,499,498,497,497,496,495,2047,2047,2047,2047,2047,2047,2047,2047,2047,2047,2047,2047,2047,2047,2047,2047,2047,2047,2047,446,446,444,444,443,441,439,439,440,440,440,438,438,436,436,435,434,433,432,429,429,428,427,426,425,424,424,423,421,421,420,417,415,414,413,412,412,411,410,409,407,405,405,404,403,402,401,400,399,397,396,395,395,394,393,392,391,2047,2047,2047,2047,2047,2047,2047,2047
2047,2047,2047,2047,2047,2047,2047,2047,2047,2047,2047,2047,2047,2047,2047,2047,2047,2047,2047,2047,2047,2047,2047,2047,2047,2047,2047,2047,2047,2047,2047,2047,2047,2047,2047,626,626,628,627,628,627,627,626,624,623,623,622,622,622,636,636,636,636,635,634,631,630,629,627,626,624,624,623,622,622,622,621,621,620,620,620,618,618,616,616,616,2047,2047,2047,2047,2047,2047,2047,2047,2047,2047,608,608,608,608,608,608,609,609,608,608,608,608,608,608,608,608,609,609,609,609,609,609,609,609,610,610,610,611,612,613,614,615,615,616,616,616,617,616,616,615,614,614,613,613,612,612,611,610,609,609,608,607,608,608,608,608,608,608,609,610,609,614,614,614,615,617,632,632,631,632,632,632,632,632,633,635,635,635,636,636,638,640,642,644,645,648,647,647,648,649,650,2047,2047,2047,2047,2047,2047,2047,2047,2047,2047,1040,1041,1041,1040,1039,1039,1039,1039,1038,1038,1038,1038,1038,1038,1038,1039,1039,1039,1039,1039,1038,1038,1038,1038,1038,1038,1038,1037,1037,1037,1037,1037,1036,1036,1036,1036,1036,1036,1037,1037,1039,1039,1039,1039,1039,1038,1037,1037,1037,1037,1037,1036,1036,1036,1036,1036,1036,1036,1036,1036,1036,1036,1036,1036,1036,1036,1036,1036,1035,1035,1035,1035,1035,1035,1035,1034,1034,1034,1034,1034,1034,1034,1034,1034,1034,1034,1035,1035,1035,1035,1035,1035,1035,1035,1034,1034,1034,1034,1034,1034,1034,1034,1034,1034,1034,1034,1033,1034,1033,1034,1034,1034,1034,1034,1034,1034,1034,1034,1034,1034,1034,1034,1034,1034,1034,1033,1033,1033,1033,1033,1033,1033,1032,1032,1032,1032,1031,1032,1031,1032,1032,1032,1032,1032,1032,1032,1032,1032,1032,1032,1032,1032,1032,1032,1032,1032,1032,1032,1032,1032,1032,1032,1032,1032,1032,1032,1032,1032,1032,1032,1032,1032,1032,1032,1032,1032,1032,1032,1032,1032,1032,1032,1031,1031,1031,1031,1031,1031,1031,1031,1031,1031,1031,1031,1031,1031,1031,1031,1030,1030,1029,1029,1029,1029,1029,1029,1030,1029,1029,1029,1028,1029,1029,1029,1029,1030,1029,1029,1028,1028,1028,1028,1028,1028,1027,1027,1027,1027,1027,1027,1028,1028,1028,1028,1027,1027,1027,1027,1027,1027,1027,1027,1027,1027,1027,1027,1027,1027,1027,1027,1027,1027,1027,1026,1026,1026,1026,1026,1026,1026,1026,1026,1026,1026,1025,1025,1025,1025,1025,1025,1025,1025,1025,1024,1024,1024,1023,1024,2047,2047,2047,2047,2047,2047,2047,2047,2047,2047,2047,2047,2047,2047,2047,2047,2047,2047,2047,2047,2047,2047,2047,2047,2047,2047,2047,2047,2047,2047,2047,2047,2047,2047,2047,2047,2047,2047,2047,2047,2047,2047,2047,2047,2047,2047,2047,2047,2047,2047,2047,2047,2047,2047,2047,2047,2047,2047,2047,2047,2047,2047,2047,2047,503,502,502,502,502,501,500,500,499,499,498,498,498,498,499,499,499,499,499,498,499,498,498,497,497,496,495,2047,2047,2047,2047,2047,2047,2047,2047,2047,2047,2047,2047,2047,2047,2047,2047,2047,2047,2047,446,445,444,443,442,441,439,438,439,439,438,438,438,2047,2047,435,434,433,432,430,429,428,427,427,425,425,424,422,421,420,419,417,415,413,412,412,411,410,409,409,406,405,405,404,404,402,401,400,397,397,396,396,395,394,393,392,391,2047,2047,2047,2047,2047,2047,2047,2047
2047,2047,2047,2047,2047,2047,2047,2047,2047,2047,2047,2047,2047,2047,2047,2047,2047,2047,2047,2047,2047,2047,2047,2047,2047,2047,2047,2047,2047,2047,2047,2047,2047,2047,2047,625,625,625,625,625,625,625,625,625,624,623,623,623,623,636,636,636,636,635,634,631,630,629,627,626,624,624,623,623,622,621,621,621,620,620,619,618,617,614,614,612,2047,2047,2047,2047,2047,2047,2047,2047,2047,2047,608,608,608,608,608,608,609,608,608,608,608,608,608,608,608,608,608,609,609,609,609,609,609,609,610,610,610,611,612,613,613,614,615,615,615,616,616,616,616,614,614,613,612,612,612,611,611,610,609,608,607,607,607,607,607,607,607,607,608,609,608,613,615,614,616,617,618,631,631,632,632,632,632,632,633,635,635,635,636,636,637,639,640,643,645,647,647,647,649,649,651,2047,2047,2047,2047,2047,2047,2047,2047,2047,2047,2047,1041,1041,1040,1039,1039,1039,1038,1038,1038,1038,1038,1038,1038,1039,1039,1039,1039,1039,1039,1038,1038,1038,1038,1038,1038,1038,1038,1038,1038,1037,1036,1035,1036,1036,1036,1036,1037,1037,1037,1039,1039,1038,1039,1038,1038,1037,1037,1037,1037,1037,1036,1036,1036,1037,1036,1036,1036,1036,1036,1036,1036,1036,1036,1036,1036,1036,1036,1035,1035,1035,1035,1035,1035,1035,1035,1035,1034,1034,1034,1034,1034,1034,1034,1034,1034,1035,1035,1035,1034,1035,1035,1035,1034,1034,1034,1034,1034,1034,1034,1034,1034,1034,1034,1034,1034,1033,1033,1033,1034,1034,1034,1034,1034,1034,1034,1034,1034,1034,1034,1034,1034,1034,1034,1034,1033,1033,1033,1033,1033,1033,1033,1032,1032,1031,1031,1031,1031,1031,1031,1032,1032,1032,1032,1032,1032,1032,1032,1032,1032,1032,1032,1032,1032,1032,1032,1031,1031,1032,1031,1032,1032,1032,1032,1032,1032,1032,1032,1032,1032,1032,1032,1032,1032,1032,1032,1032,1032,1032,1032,1032,1032,1031,1031,1031,1031,1031,1031,1031,1031,1031,1031,1031,1031,1030,1030,1030,1030,1030,1029,1029,1029,1029,1029,1029,1029,1029,1028,1028,1028,1028,1028,1029,1029,1029,1029,1029,1029,1029,1029,1029,1028,1028,1028,1027,1027,1027,1027,1027,1027,1027,1027,1028,1028,1028,1028,1028,1028,1028,1027,1027,1028,1028,1028,1028,1027,1027,1027,1027,1026,1026,1026,1026,1026,1026,1026,1026,1026,1026,1026,1026,1026,1027,1026,1025,1026,1025,1025,1025,1025,1025,1025,1025,1024,1024,1024,1024,2047,2047,2047,2047,2047,2047,2047,2047,2047,2047,2047,2047,2047,2047,2047,2047,2047,2047,2047,2047,2047,2047,2047,2047,2047,2047,2047,2047,2047,2047,2047,2047,2047,2047,2047,2047,2047,2047,2047,2047,2047,2047,2047,2047,2047,2047,2047,2047,2047,2047,2047,2047,2047,2047,2047,2047,2047,2047,2047,2047,2047,2047,2047,2047,2047,502,502,502,502,501,501,500,500,499,499,498,498,498,498,498,498,498,498,498,498,498,498,498,497,497,496,2047,2047,2047,2047,2047,2047,2047,2047,2047,2047,2047,2047,2047,2047,2047,2047,2047,2047,2047,2047,446,445,444,442,442,441,439,439,439,438,438,2047,438,2047,2047,2047,2047,432,429,429,429,428,427,426,425,424,424,423,422,421,420,417,416,413,412,411,411,410,409,408,406,405,405,404,403,402,401,398,397,397,396,396,395,393,392,392,392,2047,2047,2047,2047,2047,2047,2047,2047
2047,2047,2047,2047,2047,2047,2047,2047,2047,2047,2047,2047,2047,2047,2047,2047,2047,2047,2047,2047,2047,2047,2047,2047,2047,2047,2047,2047,2047,2047,2047,2047,2047,2047,2047,624,624,624,625,624,624,625,626,625,624,624,624,624,624,636,636,636,635,634,633,631,630,629,628,627,625,624,623,623,622,621,621,621,620,620,619,619,613,613,612,612,611,611,2047,2047,2047,2047,2047,2047,2047,2047,608,608,608,608,608,608,609,609,608,608,608,608,608,608,608,608,608,609,609,609,609,608,609,610,610,610,610,611,612,612,613,613,613,614,614,615,616,615,615,614,613,613,612,612,611,611,610,609,608,608,607,606,607,607,606,606,607,607,606,608,608,610,613,612,614,616,623,623,630,630,631,631,631,632,632,634,634,635,635,636,637,639,640,642,644,647,647,647,648,650,651,2047,2047,2047,2047,2047,2047,2047,2047,2047,2047,2047,1041,1041,1039,1039,1039,1039,1038,1038,1038,1038,1038,1038,1038,1039,1039,1039,1039,1039,1039,1039,1038,1038,1038,1038,1038,1038,1038,1038,1037,1037,1037,1036,1036,1035,1035,1036,1037,1037,1037,1037,1038,1038,1038,1037,1037,1036,1036,1036,1036,1036,1036,1036,1036,1037,1036,1036,1036,1036,1036,1036,1036,1035,1035,1036,1036,1036,1036,1035,1035,1035,1035,1035,1035,1035,1034,1034,1034,1034,1034,1034,1034,1034,1034,1034,1034,1034,1034,1034,1034,1035,1035,1035,1034,1034,1034,1034,1034,1034,1034,1034,1034,1034,1034,1034,1034,1033,1033,1033,1034,1034,1034,1034,1034,1033,1033,1034,1033,1033,1033,1034,1034,1034,1034,1034,1033,1033,1033,1033,1033,1033,1033,1032,1032,1031,1031,1031,1031,1031,1031,1032,1032,1032,1032,1032,1032,1032,1032,1032,1032,1032,1032,1032,1032,1032,1032,1031,1031,1031,1031,1032,1032,1032,1032,1032,1032,1032,1032,1032,1032,1032,1032,1032,1032,1032,1032,1032,1032,1032,1032,1032,1032,1031,1031,1031,1031,1031,1031,1031,1031,1031,1030,1030,1030,1030,1030,1030,1030,1030,1029,1029,1029,1029,1029,1029,1029,1029,1029,1029,1028,1028,1028,1028,1028,1028,1029,1029,1029,1029,1028,1029,1029,1028,1027,1027,1027,1027,1027,1027,1027,1027,1027,1027,1027,1028,1028,1028,1028,1028,1028,1028,1028,1028,1028,1027,1027,1027,1027,1026,1026,1026,1026,1026,1026,1026,1026,1026,1026,1026,1026,1026,1026,1026,1027,1025,1025,1025,1025,1025,1025,1025,1025,1025,1025,1024,1024,1024,2047,2047,2047,2047,2047,2047,2047,2047,2047,2047,2047,2047,2047,2047,2047,2047,2047,2047,2047,2047,2047,2047,2047,2047,2047,2047,2047,2047,2047,2047,2047,2047,2047,2047,2047,2047,2047,2047,2047,2047,2047,2047,2047,2047,2047,2047,2047,2047,2047,2047,2047,2047,2047,2047,2047,2047,2047,2047,2047,2047,2047,2047,2047,2047,2047,2047,502,502,502,501,501,500,500,499,498,498,498,497,497,497,497,497,498,498,498,498,498,498,497,497,497,2047,2047,2047,2047,2047,2047,2047,2047,2047,2047,2047,2047,2047,2047,2047,2047,2047,2047,2047,2047,446,445,443,442,442,441,439,439,440,438,437,437,2047,2047,2047,432,432,432,431,430,429,428,427,427,425,425,424,423,422,421,421,417,414,413,412,412,412,410,410,409,406,405,405,404,403,401,398,397,397,397,396,396,395,393,392,392,392,2047,2047,2047,2047,2047,2047,2047,2047
2047,2047,2047,2047,2047,2047,2047,2047,2047,2047,2047,2047,2047,2047,2047,2047,2047,2047,2047,2047,2047,2047,2047,2047,2047,2047,2047,2047,2047,2047,2047,2047,2047,2047,2047,623,623,623,624,624,624,623,624,625,625,625,625,2047,2047,636,636,636,636,634,633,631,631,630,628,627,625,624,623,622,621,621,621,620,620,620,620,620,613,613,612,612,612,611,2047,2047,2047,611,610,2047,2047,2047,608,608,608,608,608,608,608,608,608,608,608,608,608,608,608,608,608,608,608,608,608,608,609,609,610,610,611,611,612,612,612,612,612,613,613,614,614,614,614,613,612,612,611,611,611,610,610,609,608,607,606,605,605,605,605,605,605,605,605,605,607,606,609,609,609,627,629,629,628,629,630,630,631,631,632,632,633,634,635,635,636,638,639,640,642,646,646,647,648,650,651,2047,2047,2047,2047,2047,2047,2047,2047,2047,2047,2047,2047,1040,1039,1039,1038,1038,1038,1038,1038,1038,1038,1038,1039,1039,1039,1038,1038,1038,1038,1039,1038,1038,1038,1038,1038,1038,1038,1038,1037,1037,1037,1036,1036,1036,1035,1036,1037,1037,1037,1037,1037,1037,1037,1037,1036,1036,1036,1036,1036,1036,1036,1036,1036,1037,1036,1036,1036,1036,1036,1036,1036,1036,1036,1036,1036,1036,1036,1035,1034,1035,1035,1035,1035,1034,1034,1034,1034,1034,1034,1034,1034,1034,1034,1034,1034,1034,1034,1034,1034,1034,1035,1035,1034,1034,1034,1034,1034,1034,1034,1034,1034,1033,1033,1033,1034,1033,1033,1033,1033,1034,1034,1033,1033,1033,1033,1034,1033,1033,1033,1034,1034,1034,1033,1033,1033,1033,1033,1033,1033,1033,1033,1033,1032,1031,1031,1031,1031,1030,1031,1031,1032,1032,1032,1032,1032,1032,1032,1032,1032,1032,1032,1032,1032,1031,1031,1031,1031,1031,1031,1032,1032,1032,1032,1032,1032,1032,1032,1032,1032,1032,1032,1032,1032,1032,1032,1032,1032,1032,1032,1032,1031,1031,1031,1031,1031,1031,1031,1031,1031,1031,1031,1031,1030,1030,1030,1030,1030,1030,1029,1029,1029,1028,1028,1028,1028,1028,1028,1028,1028,1028,1028,1028,1028,1028,1028,1028,1029,1029,1028,1028,1028,2047,1027,1027,1026,1027,1027,1027,1027,1027,1027,1028,1027,1028,1028,1028,1028,1028,1028,1028,1028,1028,1028,1028,1027,1027,1027,1027,1026,1026,1026,1026,1026,1025,1025,1025,1025,1026,1026,1025,1026,1026,1026,1025,1025,1025,1025,1025,1025,1025,1025,1025,1025,1024,1025,1024,2047,2047,2047,2047,2047,2047,2047,2047,2047,2047,2047,2047,2047,2047,2047,2047,2047,2047,2047,2047,2047,2047,2047,2047,2047,2047,2047,2047,2047,2047,2047,2047,2047,2047,2047,2047,2047,2047,2047,2047,2047,2047,2047,2047,2047,2047,2047,2047,2047,2047,2047,2047,2047,2047,2047,2047,2047,2047,2047,2047,2047,2047,2047,2047,2047,2047,502,502,501,501,501,500,499,499,498,497,497,497,496,496,496,496,497,497,498,498,498,498,497,497,2047,2047,2047,2047,2047,2047,2047,2047,2047,2047,2047,2047,2047,2047,2047,2047,2047,2047,2047,2047,445,445,444,443,442,442,441,440,440,440,440,437,437,2047,2047,2047,2047,431,431,430,429,429,428,428,427,426,425,424,423,422,421,421,417,414,412,412,411,411,410,410,409,406,405,404,404,403,401,399,397,397,397,396,396,395,393,392,392,391,2047,2047,2047,2047,2047,2047,2047,2047
2047,2047,2047,2047,2047,2047,2047,2047,2047,2047,2047,2047,2047,2047,2047,2047,2047,2047,2047,2047,2047,2047,2047,2047,2047,2047,2047,2047,2047,2047,2047,2047,2047,2047,618,621,621,621,622,622,622,622,625,625,624,625,625,2047,2047,2047,635,635,634,634,633,632,632,630,629,627,625,623,622,622,621,621,620,620,619,619,619,613,613,613,612,612,611,611,610,2047,610,610,609,609,609,606,606,607,607,607,607,607,607,608,608,608,608,608,608,608,608,608,608,608,608,608,608,608,2047,2047,2047,610,611,611,611,612,612,611,612,612,613,613,613,613,613,612,612,612,611,611,611,610,609,609,608,607,606,605,605,605,604,604,604,605,604,604,606,605,607,607,604,627,627,628,628,629,629,630,630,631,631,632,633,633,634,635,636,637,637,638,640,643,645,645,647,2047,2047,2047,2047,2047,2047,2047,2047,2047,2047,2047,2047,2047,2047,1039,1038,1038,1038,1038,1038,1038,1038,1038,1038,1038,1039,1039,1039,1039,1039,1039,1038,1038,1038,1038,1038,1038,1038,1038,1038,1038,1037,1037,1036,1036,1036,1035,1035,1036,1037,1037,1037,1037,1037,1037,1037,1037,1036,1036,1036,1036,1036,1036,1036,1036,1036,1036,1036,1037,1036,1036,1036,1036,1036,1035,1035,1035,1035,1035,1035,1034,1034,1034,1035,1035,1034,1034,1034,1034,1034,1034,1034,1034,1034,1034,1034,1034,1034,1034,1034,1034,1034,1034,1035,1035,1034,1034,1034,1034,1034,1034,1034,1034,1034,1033,1033,1033,1033,1033,1033,1033,1033,1034,1034,1033,1033,1033,1033,1034,1033,1033,1033,1033,1033,1034,1033,1033,1033,1033,1033,1033,1033,1033,1033,1033,1032,1031,1031,1030,1030,1030,1030,1031,1031,1031,1032,1032,1032,1032,1032,1032,1032,1032,1032,1032,1032,1032,1032,1031,1031,1031,1031,1031,1031,1032,1032,1032,1032,1032,1032,1032,1032,1032,1032,1032,1032,1031,1032,1032,1032,1032,1032,1032,1032,1031,1032,1031,1031,1031,1031,1031,1031,1031,1031,1031,1031,1031,1030,1030,1030,1030,1029,1029,1028,1028,1028,1028,1028,1028,1028,1028,1028,1028,1028,1028,1028,1028,1028,1029,1029,2047,2047,2047,2047,2047,2047,2047,2047,2047,2047,2047,1027,1027,968,967,1028,1027,1028,1028,1028,1028,1028,1028,1028,1028,1028,1028,1028,1027,1027,1027,1026,1026,1026,1026,1026,1025,1025,1025,1025,1026,1026,1025,1026,1026,1026,1025,1025,1025,1025,1025,1025,1025,1024,1024,1024,1024,1025,1025,2047,2047,2047,2047,2047,2047,2047,2047,2047,2047,2047,2047,2047,2047,2047,2047,2047,2047,2047,2047,2047,2047,2047,2047,2047,2047,2047,2047,2047,2047,2047,2047,2047,2047,2047,2047,2047,2047,2047,2047,2047,2047,2047,2047,2047,2047,2047,2047,2047,2047,2047,2047,2047,2047,2047,2047,2047,2047,2047,2047,2047,2047,2047,2047,2047,2047,2047,501,501,501,500,499,499,498,497,497,496,496,495,495,495,495,495,496,496,498,497,497,497,2047,2047,2047,2047,2047,2047,2047,2047,2047,2047,2047,2047,2047,2047,2047,2047,2047,2047,2047,2047,2047,444,444,443,442,442,442,441,440,439,440,437,2047,436,2047,2047,430,430,430,429,429,429,429,428,428,427,425,425,424,424,424,415,415,415,413,412,412,411,412,410,409,407,406,405,404,404,404,402,398,397,397,397,396,396,393,393,392,392,392,2047,2047,2047,2047,2047,2047,2047,2047
2047,2047,2047,2047,2047,2047,2047,2047,2047,2047,2047,2047,2047,2047,2047,2047,2047,2047,2047,2047,2047,2047,2047,2047,2047,2047,2047,2047,2047,2047,2047,2047,617,617,618,619,621,620,621,622,622,624,625,625,625,626,626,2047,2047,2047,636,635,635,634,633,632,632,630,629,628,625,624,622,621,621,621,620,620,620,613,2047,613,613,613,612,611,611,611,610,610,609,609,609,608,607,607,605,606,607,607,606,607,607,607,607,607,607,608,608,608,608,608,608,608,608,608,2047,2047,2047,2047,2047,610,610,611,611,611,611,611,611,612,612,612,612,612,612,611,611,611,610,610,610,609,608,608,608,606,605,604,604,603,602,601,603,603,603,603,604,604,605,604,604,630,628,628,628,628,629,629,630,631,631,632,633,633,634,635,636,637,637,638,640,641,642,644,645,2047,2047,2047,2047,2047,2047,2047,2047,2047,2047,2047,2047,2047,2047,1040,1038,1038,1038,1038,1038,1038,1038,1038,1038,1038,1039,1039,1039,1039,1039,1039,1039,1038,1038,1038,1038,1038,1038,1037,1037,1037,1037,1036,1036,1035,1036,1035,1034,1035,1036,1036,1036,1036,1036,1036,1036,1036,1035,1035,1035,1035,1035,1036,1036,1036,1036,1036,1036,1036,1036,1036,1036,1035,1035,1035,1035,1035,1035,1035,1035,1034,1034,1034,1034,1034,1034,1034,1034,1034,1034,1034,1034,1034,1034,1034,1034,1034,1034,1034,1034,1034,1034,1034,1035,1035,1034,1034,1034,1034,1034,1034,1034,1033,1033,1033,1033,1033,1033,1033,1033,1033,1033,1033,1034,1033,1033,1033,1033,1034,1033,1033,1033,1033,1033,1033,1033,1033,1033,1033,1033,1033,1033,1033,1033,1033,1032,1031,1030,1030,1030,1030,1030,1031,1032,1032,1032,1032,1032,1032,1032,1032,1032,1032,1032,1032,1032,1031,1031,1031,1031,1032,1031,1032,1032,1032,1032,1032,1032,1032,1032,1032,1032,1032,1031,1031,1032,1031,1032,1032,1032,1032,1032,1032,1032,1031,1031,1031,1031,1031,1031,1031,1031,1031,1031,1030,1030,1030,1030,1030,1029,1029,1028,1028,1028,1028,1028,1028,1028,1028,1028,1028,1028,1028,1028,1028,1028,1028,1028,1028,1029,2047,2047,1032,1032,1032,1031,1031,2047,2047,2047,2047,968,968,968,968,968,1027,1027,1027,1028,1028,1028,1027,1027,1027,1027,1027,1027,1027,1027,1026,1026,1026,1026,1025,1025,1025,1025,1026,1025,1026,1026,1026,1026,1027,1026,1025,1025,1025,1025,1025,1025,1025,1024,1025,1025,1024,1024,1024,2047,2047,2047,2047,2047,2047,2047,2047,2047,2047,2047,2047,2047,2047,2047,2047,2047,2047,2047,2047,2047,2047,2047,2047,2047,2047,2047,2047,2047,2047,2047,2047,2047,2047,2047,2047,2047,2047,2047,2047,2047,2047,2047,2047,2047,2047,2047,2047,2047,2047,2047,2047,2047,2047,2047,2047,2047,2047,2047,2047,2047,2047,2047,2047,2047,2047,2047,2047,2047,498,498,497,497,496,496,495,495,495,495,495,494,494,494,498,498,498,2047,2047,2047,2047,2047,2047,2047,2047,2047,2047,473,473,472,2047,471,2047,2047,2047,2047,2047,2047,445,445,444,443,442,443,442,441,440,439,436,2047,2047,432,432,431,430,430,429,429,428,427,426,425,425,424,424,422,421,421,420,419,418,416,414,413,412,411,410,410,409,409,408,405,402,401,401,400,400,399,397,396,393,393,393,392,391,390,389,389,388,2047,2047,2047,2047,2047,2047,2047,2047
833,833,834,836,837,837,2047,2047,2047,2047,2047,2047,2047,2047,2047,2047,2047,2047,2047,2047,2047,2047,2047,2047,2047,2047,2047,2047,2047,2047,2047,625,626,626,625,626,626,626,627,627,626,625,625,622,2047,2047,2047,2047,2047,2047,630,630,628,627,627,627,626,626,625,622,620,621,620,617,616,615,614,614,613,612,612,609,609,608,607,607,607,607,607,606,608,608,608,608,607,607,607,607,606,606,606,606,606,606,606,605,606,607,607,2047,2047,2047,2047,2047,2047,2047,2047,2047,607,606,608,608,608,609,609,609,609,608,609,609,609,608,608,608,597,597,598,598,597,597,598,597,597,597,596,596,596,597,597,598,599,600,600,2047,2047,2047,2047,2047,2047,620,620,626,626,627,628,628,629,630,630,631,632,633,636,637,637,638,639,640,640,641,641,642,2047,2047,2047,2047,2047,2047,2047,1040,1039,1039,1039,1040,1040,1040,1039,1039,1039,1039,1038,1038,1038,1038,1038,1038,1038,1038,1038,1038,1038,1038,1038,1038,1038,1038,1038,1038,1038,1038,1038,1038,1038,1038,1038,1038,1037,1037,1037,1037,1037,1037,1036,1036,1037,1036,1036,1035,1035,1036,1036,1036,1036,1037,1037,1037,1036,1036,1036,1036,1036,1036,1036,1036,1036,1036,1036,1036,1036,1035,1035,1035,1035,1035,1035,1034,1034,1034,1034,1034,1034,1035,1034,1034,1034,1034,1035,1034,1034,1034,1034,1034,1034,1034,1034,1034,1035,1035,1035,1035,1035,1035,1034,1034,1034,1034,1034,1033,1033,1033,1033,1033,1034,1033,1033,1033,1033,1034,1034,1034,1033,1033,1034,1034,1033,1033,1033,1033,1033,1033,1033,1033,1033,1033,1033,1033,1033,1033,1033,1033,1032,1031,1031,1031,1031,1031,1031,1032,1032,1032,1033,1032,1032,1032,1032,1032,1032,1031,1031,1031,1031,1030,1031,1031,1031,1032,1032,1032,1032,1032,1032,1032,1032,1032,1031,1031,1032,1031,1031,1031,1032,1032,1032,1032,1031,1031,1031,1031,1031,1031,1031,1031,1032,1031,1032,1031,1031,1032,1031,1031,1030,1031,1030,1030,1030,1030,1029,1029,1029,1028,1028,1028,1028,1028,1028,1028,1028,1028,1028,1028,2047,2047,2047,2047,2047,2047,2047,2047,1032,1032,1032,967,2047,2047,2047,968,968,968,968,968,968,968,967,967,968,968,969,1027,1027,1026,1026,1026,1026,1026,1026,1026,1026,1026,1026,1026,1026,1025,1027,1027,1027,1027,1027,1026,1027,1027,1027,1026,1026,1026,1025,1025,1025,1025,1025,1025,1024,1024,1024,1024,1023,2047,2047,2047,2047,2047,2047,2047,2047,2047,2047,2047,2047,2047,2047,2047,2047,2047,2047,2047,2047,2047,2047,2047,2047,2047,2047,2047,2047,2047,2047,2047,2047,2047,2047,2047,2047,2047,2047,2047,2047,2047,2047,2047,2047,2047,2047,2047,2047,2047,2047,2047,2047,2047,2047,2047,2047,2047,2047,2047,2047,2047,2047,2047,2047,2047,2047,2047,2047,497,497,497,497,496,495,494,494,494,493,493,493,493,2047,2047,2047,2047,2047,2047,2047,2047,2047,2047,2047,2047,2047,2047,473,473,472,473,471,471,2047,2047,2047,2047,2047,445,445,444,443,442,442,442,441,440,438,435,433,433,432,432,432,430,430,429,428,428,426,425,425,424,424,423,422,421,420,419,418,417,415,413,413,412,410,409,409,409,409,408,408,402,401,401,400,399,398,396,396,393,393,393,391,391,390,389,389,388,2047,2047,2047,2047,2047,2047,2047,2047
