1041,1041,1041,1041,1041,1041,1041,1041,1041,1041,1041,1041,1041,1042,1041,1041,1041,1041,1040,1041,1041,1041,1041,1042,1043,1043,1042,1042,1042,1041,1042,1042,1042,1042,1042,1043,1043,1044,1044,1044,1044,1044,1045,1045,1044,1044,1044,1044,1044,1044,1044,1044,1044,1044,1044,1045,1045,1045,1045,1045,1045,1045,1044,1044,1044,1044,1044,1044,1044,1044,1044,1045,1045,1045,1045,1045,1045,1045,1045,1045,1044,1044,1044,1045,1044,1045,1045,1046,1046,1046,1046,1046,1046,1046,1046,1046,1046,1046,1047,1047,1047,1047,1046,1046,1046,1046,1046,1046,1046,1047,1048,1048,1048,1048,1048,1048,1048,1048,1048,1048,1048,1048,1048,1048,1048,1048,1048,1047,1047,1048,1048,1048,1048,1048,1048,1048,1048,1048,1048,1048,1048,1048,1048,1048,1048,1048,1048,1048,1048,1048,1049,1048,1048,1048,1048,1048,1049,1049,1049,1049,1049,1050,1050,1050,1049,1049,1049,1049,1049,1049,1049,1049,1050,1051,1051,1050,1050,1050,1049,1049,2047,2047,2047,2047,2047,2047,2047,2047,2047,2047,2047,2047,2047,2047,2047,2047,2047,913,913,913,912,912,912,912,912,912,912,912,912,913,912,911,2047,2047,2047,2047,2047,2047,2047,890,889,886,885,885,885,885,884,884,884,884,884,884,883,883,883,883,882,882,882,882,882,881,881,881,881,881,881,880,880,880,880,881,881,881,881,881,881,881,881,881,881,880,881,881,881,881,881,881,881,881,881,881,880,880,880,880,880,880,880,880,881,881,881,881,881,881,882,882,883,883,884,884,884,884,884,885,885,885,885,886,886,886,886,886,886,885,884,876,876,876,875,875,874,874,873,873,873,873,872,872,872,872,872,873,873,873,874,874,874,874,875,877,876,877,877,878,878,878,878,879,880,880,882,881,1049,1048,1048,1047,1047,1047,1047,1047,1046,1046,1046,1046,1046,1046,1046,1046,1046,1046,1046,1045,1045,1045,1045,1045,1044,1044,1045,1045,1044,1044,1045,1044,1045,1044,1044,1043,1044,1044,1043,1042,1042,2047,2047,2047,2047,2047,2047,2047,2047,2047,2047,2047,2047,2047,2047,2047,2047,2047,2047,2047,2047,2047,2047,2047,2047,2047,2047,2047,2047,2047,2047,2047,2047,2047,2047,2047,2047,2047,2047,2047,2047,2047,2047,2047,2047,2047,2047,2047,2047,2047,2047,2047,2047,2047,2047,2047,2047,2047,2047,2047,2047,2047,2047,2047,2047,2047,2047,2047,2047,2047,2047,2047,2047,2047,2047,2047,2047,2047,2047,2047,2047,2047,2047,2047,2047,2047,2047,2047,2047,2047,2047,690,690,689,689,688,687,687,686,687,686,686,686,686,686,686,686,685,685,685,685,685,684,684,683,683,682,682,681,681,680,678,677,676,675,673,672,671,670,670,669,668,667,666,666,665,664,663,662,661,661,660,660,659,658,657,656,655,655,654,654,653,653,652,651,650,650,650,649,649,648,648,648,646,646,646,645,645,643,642,642,641,640,640,639,638,638,637,637,636,635,634,634,634,633,632,632,630,630,630,629,628,627,626,626,625,625,625,624,623,622,621,620,619,618,618,617,616,615,614,613,612,611,611,610,609,2047,2047,602,602,602,602,601,600,599,598,597,597,596,595,594,592,591,590,589,589,588,586,585,583,582,581,581,580,579,578,577,576,2047,2047,2047,2047,2047,2047,2047,2047
1041,1041,1041,1041,1041,1041,1041,1041,1041,1041,1041,1041,1041,1042,1042,1041,1041,1041,1041,1041,1041,1041,1041,1043,1043,1043,1042,1042,1042,1042,1042,1042,1042,1043,1043,1043,1044,1044,1044,1044,1044,1044,1045,1045,1044,1044,1044,1044,1044,1044,1044,1044,1044,1044,1044,1046,1045,1045,1045,1045,1045,1045,1044,1044,1044,1044,1044,1044,1044,1044,1044,1045,1045,1045,1045,1045,1045,1045,1045,1045,1045,1044,1044,1044,1044,1045,1044,1046,1046,1046,1046,1046,1046,1046,1046,1046,1046,1046,1047,1047,1047,1047,1047,1046,1047,1046,1046,1046,1047,1048,1048,1048,1048,1048,1048,1048,1048,1048,1048,1048,1048,1048,1048,1048,1048,1048,1047,1047,1047,1048,1048,1048,1047,1048,1048,1048,1048,1048,1048,1048,1048,1048,1048,1048,1048,1048,1048,1048,1049,1048,1049,1048,1048,1048,1048,1048,1049,1049,1049,1049,1049,1050,1050,1050,1049,1049,1049,1049,1049,1049,1049,1049,1049,1050,1050,1050,1050,1050,1049,1050,2047,2047,2047,2047,2047,2047,2047,2047,2047,2047,2047,2047,2047,2047,2047,2047,2047,2047,913,913,912,913,912,912,912,912,913,913,913,912,912,912,2047,2047,2047,2047,2047,2047,2047,2047,887,886,885,885,885,885,884,884,884,884,884,884,884,884,883,883,882,882,882,881,881,881,881,881,881,880,880,880,880,880,880,881,880,881,881,881,881,881,881,881,881,881,881,881,881,881,881,881,881,881,881,881,880,880,880,881,880,880,880,880,880,881,881,881,881,881,881,881,882,882,883,883,884,884,884,884,884,885,885,886,886,886,886,886,886,885,885,877,876,876,875,875,874,874,873,873,873,872,872,872,872,872,872,873,873,873,874,874,874,874,875,876,876,876,877,878,878,878,878,879,880,880,881,881,1049,1049,1048,1047,1047,1047,1047,1046,1046,1046,1046,1046,1046,1046,1046,1046,1046,1046,1046,1045,1045,1045,1045,1045,1044,1044,1044,1044,1044,1044,1044,1044,1045,1044,1044,1043,1043,1044,1043,1042,1043,2047,2047,2047,2047,2047,2047,2047,2047,2047,2047,2047,2047,2047,2047,2047,2047,2047,2047,2047,2047,2047,2047,2047,2047,2047,2047,2047,2047,2047,2047,2047,2047,2047,2047,2047,2047,2047,2047,2047,2047,2047,2047,2047,2047,2047,2047,2047,2047,2047,2047,2047,2047,2047,2047,2047,2047,2047,2047,2047,2047,2047,2047,2047,2047,2047,2047,2047,2047,2047,2047,2047,2047,2047,2047,2047,2047,2047,2047,2047,2047,2047,2047,2047,2047,2047,2047,2047,2047,2047,2047,2047,689,689,688,688,687,686,686,686,686,686,685,685,685,685,685,685,685,685,685,685,684,684,683,683,682,682,681,680,679,678,677,676,675,673,672,671,670,669,669,668,667,666,666,665,664,663,662,661,660,659,659,658,657,657,656,655,654,654,653,653,652,651,651,650,650,649,649,649,648,648,647,646,645,646,644,644,642,642,641,640,640,640,639,638,637,637,637,636,635,634,634,633,633,632,631,630,629,629,629,628,627,626,626,625,625,624,623,622,621,620,619,619,618,617,617,616,615,614,613,612,611,611,610,609,2047,601,601,601,601,601,600,599,598,598,597,597,596,594,593,592,591,590,589,588,587,586,584,583,582,581,581,580,579,578,576,575,2047,2047,2047,2047,2047,2047,2047,2047
1041,1042,1041,1041,1041,1041,1041,1041,1042,1041,1042,1042,1042,1043,1042,1041,1041,1041,1041,1042,1041,1041,1041,1042,1043,1043,1042,1041,1042,1041,1042,1042,1042,1043,1043,1043,1044,1044,1044,1044,1044,1044,1045,1045,1044,1044,1044,1044,1045,1044,1044,1044,1044,1044,1044,1046,1045,1045,1045,1045,1045,1045,1044,1044,1044,1044,1044,1044,1044,1044,1044,1044,1045,1045,1045,1045,1045,1045,1046,1045,1045,1045,1044,1044,1044,1045,1045,1046,1046,1046,1046,1046,1046,1046,1046,1046,1046,1046,1046,1047,1047,1047,1047,1046,1047,1047,1046,1047,1047,1048,1048,1048,1048,1048,1048,1048,1048,1048,1048,1048,1048,1048,1048,1048,1048,1048,1047,1047,1047,1048,1048,1047,1047,1048,1048,1048,1048,1048,1048,1048,1048,1048,1048,1048,1048,1048,1049,1048,1048,1048,1049,1048,1048,1048,1048,1049,1049,1049,1049,1049,1049,1050,1050,1049,1049,1049,1049,1049,1049,1049,1049,1049,1050,1050,1051,1051,1050,1050,1049,1050,1050,2047,2047,2047,2047,2047,2047,2047,2047,2047,2047,2047,2047,2047,2047,2047,2047,2047,913,913,912,912,912,912,912,912,913,912,913,912,912,912,912,2047,2047,2047,2047,2047,2047,889,888,886,885,885,885,885,884,884,884,884,884,884,884,884,883,883,882,882,882,881,881,881,881,881,881,880,880,880,880,880,880,881,880,881,881,881,881,881,881,880,881,881,880,881,881,881,881,881,881,881,881,881,880,880,880,880,880,880,880,881,881,881,881,881,881,881,881,881,882,883,883,884,884,884,884,884,884,885,885,885,886,886,886,886,886,885,878,877,876,876,875,875,874,874,874,873,873,872,872,872,872,872,872,873,873,873,874,874,874,874,875,876,876,877,877,878,878,878,879,880,880,880,881,881,1049,1049,1048,1047,1047,1047,1047,1046,1046,1046,1046,1047,1046,1046,1046,1046,1046,1046,1046,1045,1045,1045,1045,1044,1044,1044,1044,1044,1044,2047,2047,2047,2047,1044,1044,2047,1044,1044,1044,1042,2047,2047,2047,2047,2047,2047,2047,2047,2047,2047,2047,2047,2047,2047,2047,2047,2047,2047,2047,2047,2047,2047,2047,2047,2047,2047,2047,2047,2047,2047,2047,2047,2047,2047,2047,2047,2047,2047,2047,2047,2047,2047,2047,2047,2047,2047,2047,2047,2047,2047,2047,2047,2047,2047,2047,2047,2047,2047,2047,2047,2047,2047,2047,2047,2047,2047,2047,2047,2047,2047,2047,2047,2047,2047,2047,2047,2047,2047,2047,2047,2047,2047,2047,2047,2047,2047,2047,2047,2047,2047,2047,2047,688,688,688,687,686,686,686,686,686,685,685,685,685,684,685,685,685,684,684,684,684,683,683,682,682,682,681,680,679,678,677,676,675,673,671,671,670,669,668,667,666,666,665,664,664,663,662,661,660,659,658,657,657,656,655,655,654,653,653,653,652,651,650,650,649,649,649,648,648,647,646,646,645,645,645,645,640,640,639,639,638,638,638,638,637,637,637,636,635,635,634,633,632,631,631,630,629,629,629,628,627,626,626,625,624,624,623,622,621,620,619,619,618,617,616,616,614,614,613,612,612,612,610,610,2047,610,601,601,601,601,600,599,598,598,597,596,595,594,593,592,591,590,589,588,587,585,584,583,582,581,580,580,579,577,576,575,2047,2047,2047,2047,2047,2047,2047,2047
1041,1042,1042,1041,1041,1041,1041,1041,1042,1042,1042,1042,1043,1043,1042,1042,1041,1042,1042,1042,1041,1041,1041,1042,1042,1042,1041,1041,1041,1041,1042,1042,1042,1043,1043,1043,1044,1045,1045,1045,1044,1045,1045,1045,1044,1044,1044,1044,1045,1044,1044,1044,1044,1044,1044,1046,1045,1045,1045,1045,1045,1045,1044,1044,1044,1044,1044,1044,1044,1044,1045,1045,1045,1045,1045,1045,1046,1046,1045,1046,1045,1044,1044,1044,1045,1045,1045,1045,1047,1047,1046,1046,1046,1046,1046,1046,1046,1046,1046,1047,1047,1047,1047,1046,1047,1047,1047,1047,1047,1047,1048,1048,1048,1048,1048,1048,1048,1048,1048,1048,1048,1048,1048,1048,1048,1047,1047,1047,1047,1048,1048,1047,1047,1048,1048,1048,1048,1048,1048,1048,1048,1048,1048,1048,1048,1048,1048,1048,1048,1048,1049,1048,1048,1048,1048,1048,1049,1049,1049,1049,1049,1050,1050,1050,1049,1049,1049,1049,1049,1049,1049,1049,1049,1050,1050,1050,1050,1050,1049,1049,1049,2047,2047,2047,2047,2047,2047,2047,2047,2047,2047,2047,2047,2047,2047,2047,2047,2047,913,913,912,912,912,912,912,912,912,912,912,912,912,912,912,2047,2047,2047,2047,2047,890,889,888,886,885,885,885,885,884,884,884,884,884,884,884,883,883,883,883,882,882,881,882,881,881,881,881,880,880,880,880,880,880,880,880,881,881,881,881,881,881,880,881,881,880,880,881,881,881,881,881,881,881,881,880,880,880,880,880,881,880,881,881,881,881,881,881,881,881,881,882,883,883,884,883,884,884,884,884,884,885,885,886,886,886,886,886,885,885,877,877,876,875,875,874,874,873,873,873,872,872,872,872,872,872,873,873,873,873,873,874,874,874,875,876,876,877,878,878,878,879,879,880,880,881,881,881,1049,1049,1048,1048,1047,1047,1047,1046,1046,1047,1047,1046,1046,1046,1046,1046,1046,1046,1045,1045,1045,1045,1045,2047,2047,2047,2047,2047,2047,2047,2047,2047,2047,2047,2047,2047,2047,2047,2047,2047,2047,2047,2047,2047,2047,2047,2047,2047,2047,2047,2047,2047,2047,2047,2047,2047,2047,2047,2047,2047,2047,2047,2047,2047,2047,2047,2047,2047,2047,2047,2047,2047,2047,2047,2047,2047,2047,2047,2047,2047,2047,1029,2047,2047,2047,2047,2047,2047,2047,2047,2047,2047,2047,2047,2047,2047,2047,2047,2047,2047,2047,2047,2047,2047,2047,2047,2047,2047,2047,2047,2047,2047,2047,2047,2047,2047,2047,2047,2047,2047,2047,2047,2047,2047,2047,2047,2047,2047,2047,2047,2047,689,689,689,688,688,687,687,687,687,687,686,686,686,686,686,686,686,685,685,685,685,684,684,683,683,682,682,681,680,678,678,677,676,675,674,673,672,671,670,670,668,668,667,666,666,665,663,662,661,660,659,658,658,657,657,656,655,654,654,653,653,652,651,650,650,649,649,648,648,646,646,646,645,2047,645,2047,2047,641,641,640,640,639,638,638,638,637,637,636,636,635,634,633,632,631,631,630,629,629,629,628,627,627,626,626,625,625,624,623,621,621,620,619,618,618,617,616,615,614,614,613,612,611,610,609,607,604,603,602,602,601,601,600,601,599,598,597,596,595,594,593,592,591,590,589,588,587,586,585,583,583,581,581,580,578,577,576,2047,2047,2047,2047,2047,2047,2047,2047
1041,1041,1041,1041,1041,1040,1040,1040,1040,1041,1041,1041,1041,1043,1042,1043,1043,1043,1043,1042,1042,1041,1042,1042,1042,1042,1042,1042,1043,1042,1042,1042,1043,1043,1044,1044,1044,1044,1044,1044,1044,1044,1045,1044,1044,1044,1045,1044,1045,1044,1044,1044,1045,1045,1045,1045,1045,1045,1044,1044,1044,1044,1044,1044,1044,1044,1044,1044,1044,1044,1044,1045,1045,1045,1045,1045,1045,1046,1046,1046,1046,1046,1046,1046,1046,1046,1046,1046,1046,1047,1046,1046,1046,1046,1046,1047,1047,1046,1047,1047,1047,1047,1047,1047,1047,1047,1047,1047,1047,1048,1048,1048,1048,1047,1048,1048,1048,1048,1048,1048,1048,1048,1048,1048,1048,1048,1047,1047,1047,1048,1048,1048,1047,1048,1048,1048,1048,1048,1048,1048,1048,1048,1048,1048,1047,1048,1048,1048,1048,1048,1048,1048,1049,1049,1049,1049,1049,1049,1049,1048,1049,1049,1049,1049,1049,1049,1049,1049,1049,1049,1049,1049,1049,1049,1049,1049,1049,1049,1049,1049,1049,2047,2047,2047,2047,2047,2047,2047,2047,2047,2047,2047,2047,2047,2047,2047,2047,2047,913,913,913,913,912,912,912,912,912,912,912,913,913,913,2047,2047,2047,2047,2047,891,889,888,887,886,885,885,885,885,885,884,884,884,884,883,884,883,883,883,883,881,881,881,881,881,881,881,881,880,880,880,880,880,880,880,880,880,881,881,881,881,881,880,881,881,880,881,881,881,881,881,881,881,881,881,880,880,880,880,881,881,881,881,880,881,881,881,881,881,881,882,883,883,883,884,884,884,884,884,884,884,885,885,885,885,884,883,882,878,877,876,876,875,874,874,873,873,873,872,872,872,872,872,872,872,872,873,873,873,874,874,874,875,876,877,877,877,878,878,879,879,880,881,881,881,881,881,880,1050,1049,1047,1048,1047,1047,1046,1046,1046,1046,1047,1046,1047,1046,2047,2047,2047,2047,2047,2047,2047,2047,2047,2047,2047,2047,2047,1045,1045,1045,1045,2047,2047,2047,2047,2047,2047,2047,2047,2047,2047,2047,2047,2047,2047,2047,2047,2047,2047,2047,2047,2047,2047,2047,2047,2047,2047,2047,2047,2047,2047,2047,2047,2047,2047,2047,2047,2047,2047,2047,2047,2047,2047,2047,2047,2047,2047,2047,2047,2047,1029,1029,1029,2047,2047,2047,2047,2047,2047,2047,2047,2047,2047,2047,2047,2047,2047,2047,2047,2047,2047,2047,2047,2047,2047,2047,2047,2047,2047,2047,2047,2047,2047,2047,2047,2047,2047,2047,2047,2047,2047,2047,2047,2047,2047,2047,2047,2047,2047,2047,2047,689,688,688,688,687,687,686,686,686,686,686,686,685,685,686,686,685,685,685,685,685,684,683,683,683,682,681,681,679,678,678,677,676,675,674,673,672,671,670,670,668,668,667,666,666,665,663,662,661,660,659,658,658,657,656,655,655,654,654,653,653,652,651,650,649,649,648,648,647,646,646,645,645,2047,2047,2047,2047,641,641,640,639,639,638,638,637,637,637,636,635,634,633,632,631,631,630,630,629,629,628,627,627,626,626,625,625,624,623,623,621,620,619,619,618,617,617,616,615,614,614,613,612,611,609,609,606,604,603,602,601,600,600,600,599,598,597,597,596,594,594,593,592,591,590,589,588,587,586,585,583,582,581,580,579,578,577,576,2047,2047,2047,2047,2047,2047,2047,2047
1041,1041,1041,1041,1041,1040,1040,1040,1040,1040,1040,1041,1041,1042,1042,1042,1042,1043,1043,1042,1042,1042,1042,1043,1042,1042,1042,1043,1043,1042,1042,1043,1043,1043,1044,1044,1044,1044,1044,1044,1044,1044,1044,1044,1044,1044,1044,1044,1044,1044,1044,1044,1044,1045,1045,1045,1044,1044,1044,1044,1044,1044,1044,1044,1044,1044,1044,1044,1044,1044,1044,1044,1044,1045,1045,1045,1045,1046,1046,1045,1045,1045,1046,1046,1046,1046,1046,1047,1047,1046,1046,1046,1046,1046,1046,1047,1046,1046,1047,1047,1047,1047,1047,1047,1047,1047,1047,1047,1047,1047,1048,1047,1047,1047,1048,1048,1047,1047,1048,1047,1048,1048,1048,1048,1048,1048,1047,1047,1048,1048,1048,1048,1047,1048,1048,1048,1048,1048,1048,1048,1049,1048,1047,1047,1047,1047,1048,1048,1048,1048,1048,1049,1049,1049,1049,1049,1049,1049,1049,1049,1049,1049,1049,1049,1049,1049,1049,1049,1049,1049,1049,1049,1049,1049,1049,1049,1049,1049,1049,1049,1048,2047,2047,2047,2047,2047,2047,2047,2047,2047,2047,2047,2047,2047,2047,2047,2047,913,913,913,913,913,912,912,912,912,912,912,912,912,912,912,2047,2047,2047,2047,2047,889,888,888,887,887,885,885,885,885,885,885,884,884,884,883,884,883,883,882,882,881,881,881,881,881,881,881,881,880,880,880,880,880,880,880,880,881,880,881,881,881,881,880,881,881,880,881,881,881,881,881,881,881,881,881,880,880,880,880,880,880,881,880,880,881,881,881,881,881,881,881,882,883,883,883,884,884,884,884,884,884,884,885,885,885,884,883,880,878,877,876,876,875,874,874,873,873,872,872,872,872,872,872,872,871,872,873,873,873,873,874,874,874,875,876,877,877,878,878,879,879,880,881,881,881,881,881,881,881,1049,2047,1048,1046,1047,1046,1046,1046,1047,1047,1046,2047,2047,2047,2047,2047,2047,2047,2047,2047,2047,2047,2047,2047,2047,2047,1045,1045,1045,1045,1045,2047,2047,2047,2047,2047,2047,2047,2047,2047,2047,2047,2047,2047,2047,2047,2047,2047,2047,2047,2047,2047,2047,2047,2047,2047,2047,2047,2047,2047,2047,2047,2047,2047,2047,2047,2047,2047,2047,2047,2047,2047,2047,2047,2047,2047,2047,2047,2047,1029,1028,1028,1029,2047,2047,2047,2047,2047,2047,2047,2047,2047,2047,2047,2047,2047,2047,2047,2047,2047,2047,2047,2047,2047,2047,2047,2047,2047,2047,2047,2047,2047,2047,2047,2047,2047,2047,2047,2047,2047,2047,2047,2047,2047,2047,2047,2047,2047,2047,2047,688,687,687,688,687,686,686,686,686,686,686,686,685,685,685,685,685,685,685,684,684,684,683,682,682,681,681,680,679,678,677,677,676,675,674,673,672,670,670,669,668,668,667,666,665,664,663,662,661,660,659,658,657,657,656,655,654,654,653,653,652,651,650,649,649,648,647,647,646,646,645,645,2047,2047,2047,2047,2047,2047,640,639,639,638,638,637,637,637,636,635,634,634,633,632,631,631,630,630,629,629,628,627,626,626,626,625,624,624,623,622,621,620,619,619,618,618,617,617,616,615,614,613,612,610,608,609,606,606,602,600,600,599,600,599,599,598,597,596,595,594,593,593,592,590,589,588,587,586,585,584,583,582,580,580,578,578,577,576,2047,2047,2047,2047,2047,2047,2047,2047
1041,1040,1041,1041,1041,1040,1040,1040,1040,1040,1041,1041,1041,1042,1042,1042,1042,1043,1043,1043,1041,1042,1042,1043,1042,1042,1042,1043,1043,1042,1043,1043,1043,1043,1043,1043,1043,1044,1044,1043,1043,1044,1044,1044,1044,1044,1044,1044,1045,1044,1044,1044,1044,1044,1043,1043,1045,1044,1044,1044,1044,1044,1044,1044,1044,1044,1044,1044,1044,1044,1044,1044,1044,1045,1045,1045,1045,1045,1046,1046,1046,1046,1046,1046,1046,1046,1046,1046,1046,1046,1046,1046,1046,1046,1046,1047,1046,1046,1047,1046,1047,1047,1047,1047,1047,1047,1047,1047,1047,1047,1047,1047,1047,1047,1048,1047,1047,1047,1047,1047,1047,1048,1048,1048,1048,1048,1048,1048,1048,1048,1048,1048,1048,1048,1048,1048,1048,1048,1048,1048,1048,1048,1047,1047,1047,1047,1048,1048,1048,1048,1049,1049,1049,1049,1049,1049,1049,1049,1049,1049,1049,1049,1049,1049,1049,1049,1049,1049,1049,1049,1049,1049,1049,1049,1049,1049,1049,1049,1049,1049,1049,2047,2047,2047,2047,2047,2047,2047,2047,2047,2047,2047,2047,2047,2047,2047,2047,913,913,913,913,913,912,912,912,912,912,912,912,912,912,912,2047,2047,2047,2047,2047,889,888,887,887,886,885,885,885,885,885,885,884,884,884,883,884,883,883,883,882,881,881,881,881,881,881,881,881,880,880,880,880,880,880,880,880,880,880,880,880,881,881,880,881,881,880,881,881,881,881,881,881,880,881,880,880,880,880,880,880,880,881,880,880,880,880,881,881,881,881,881,882,882,883,883,883,884,884,884,884,884,884,884,885,884,883,882,880,878,877,876,876,875,874,873,873,873,872,872,872,872,872,872,871,871,871,873,873,873,873,874,874,874,875,876,877,877,878,878,879,879,880,881,881,881,881,881,881,2047,2047,2047,2047,2047,2047,1046,1046,1046,1047,1047,1046,2047,2047,2047,2047,2047,2047,2047,2047,2047,2047,2047,2047,2047,2047,1045,1045,1045,1045,1045,2047,2047,2047,2047,2047,2047,1045,1045,2047,2047,2047,2047,2047,2047,2047,2047,2047,2047,2047,2047,2047,2047,2047,2047,2047,2047,2047,2047,2047,2047,2047,2047,2047,2047,2047,2047,2047,2047,2047,2047,2047,2047,2047,2047,2047,2047,2047,2047,2047,1028,1028,1029,1028,2047,2047,2047,2047,2047,2047,2047,2047,2047,2047,2047,2047,2047,2047,2047,2047,2047,2047,2047,2047,2047,2047,2047,2047,2047,2047,2047,2047,2047,2047,2047,2047,2047,2047,2047,2047,2047,2047,2047,2047,2047,2047,2047,2047,2047,2047,2047,688,687,687,687,687,686,686,686,686,686,685,685,685,685,685,685,685,685,684,684,684,683,682,682,682,681,681,680,679,678,677,676,675,675,674,673,672,670,669,669,668,667,666,666,665,663,662,662,661,660,659,658,657,656,655,654,654,653,653,652,652,651,650,649,648,647,647,646,646,645,645,645,2047,2047,2047,2047,2047,638,639,638,638,638,638,637,637,636,635,634,634,633,632,632,631,630,630,630,629,628,628,627,626,626,625,624,624,623,622,622,621,620,619,619,618,618,617,617,616,614,613,612,611,610,609,609,608,608,608,598,598,598,598,599,598,597,596,596,594,594,593,592,591,590,589,588,587,586,585,584,582,581,580,579,578,577,576,576,2047,2047,2047,2047,2047,2047,2047,2047
1041,1040,1041,1041,1041,1040,1041,1040,1041,1041,1041,1041,1042,1042,1042,1043,1043,1043,1043,1043,1042,1042,1042,1041,1041,1041,1041,1042,1042,1042,1042,1043,1043,1043,1043,1043,1043,1043,1043,1043,1044,1044,1044,1044,1044,1044,1044,1044,1045,1044,1044,1044,1044,1044,1043,1043,1044,1044,1043,1043,1044,1044,1044,1044,1044,1044,1044,1044,1044,1044,1044,1044,1045,1045,1045,1045,1045,1045,1046,1046,1046,1046,1046,1047,1046,1046,1046,1046,1046,1046,1046,1046,1046,1046,1046,1046,1046,1046,1047,1046,1046,1046,1046,1046,1047,1046,1047,1046,1047,1047,1047,1047,1047,1047,1048,1047,1047,1047,1047,1047,1047,1047,1048,1048,1048,1048,1048,1048,1048,1048,1048,1048,1048,1048,1048,1048,1049,1049,1048,1048,1049,1048,1048,1048,1047,1047,1048,1048,1048,1048,1049,1049,1049,1049,1049,1049,1049,1049,1049,1049,1049,1048,1049,1049,1049,1049,1049,1049,1049,1049,1049,1049,1049,1049,1049,1049,1049,1049,1049,1049,1049,2047,2047,2047,2047,2047,2047,2047,2047,2047,2047,2047,2047,2047,2047,2047,2047,913,913,913,913,912,912,912,912,912,912,912,911,911,912,2047,2047,2047,2047,2047,2047,2047,888,887,886,886,885,885,885,885,885,884,884,884,884,883,883,883,882,882,882,881,881,881,881,881,881,881,881,880,880,880,880,880,880,880,880,880,880,881,880,881,881,880,881,881,880,881,881,880,881,880,880,880,880,880,880,880,880,881,881,881,881,881,880,880,880,881,881,881,881,881,881,882,883,883,883,883,884,884,884,884,884,884,884,884,883,882,878,878,877,876,876,875,874,874,873,873,872,872,872,872,871,871,871,871,871,873,873,873,873,873,874,874,875,875,876,877,877,878,878,879,879,880,881,880,880,880,2047,2047,2047,2047,2047,2047,2047,2047,2047,2047,2047,2047,2047,2047,2047,2047,2047,2047,2047,2047,2047,2047,2047,2047,2047,2047,2047,2047,1045,1045,1045,1045,1045,1045,1045,1045,1045,1044,1045,1044,1044,2047,2047,2047,2047,2047,2047,2047,2047,2047,2047,2047,2047,2047,2047,2047,2047,2047,2047,2047,2047,2047,2047,2047,2047,2047,2047,2047,2047,2047,2047,2047,2047,2047,2047,2047,2047,2047,2047,2047,1027,1028,1027,1028,1028,1027,2047,2047,2047,2047,2047,2047,2047,2047,2047,2047,2047,2047,2047,2047,2047,2047,2047,2047,2047,2047,2047,2047,2047,2047,2047,2047,2047,2047,2047,2047,2047,2047,2047,2047,2047,2047,2047,2047,2047,2047,2047,2047,2047,2047,2047,2047,688,687,687,687,686,686,685,686,685,685,685,685,685,684,685,685,685,684,684,684,683,683,682,682,682,681,680,679,678,677,677,676,675,674,673,672,671,669,669,669,668,667,666,665,664,663,662,662,661,660,658,658,657,656,655,654,653,653,652,652,651,650,650,649,648,647,647,646,645,645,645,645,2047,2047,2047,2047,2047,638,638,638,638,638,637,637,636,636,635,634,633,633,632,631,630,630,630,629,629,628,627,626,626,625,625,624,624,623,622,622,621,620,619,618,618,617,617,616,615,614,613,612,611,610,609,609,608,608,2047,598,598,597,598,598,598,597,596,595,594,593,592,591,590,590,589,588,586,585,585,584,582,581,580,579,578,577,576,575,2047,2047,2047,2047,2047,2047,2047,2047
1040,1040,1040,1041,1041,1040,1041,1040,1041,1041,1041,1041,1041,1042,1042,1042,1042,1043,1043,1043,1041,1041,1043,1041,1041,1041,1042,1043,1043,1042,1042,1043,1042,1043,1042,1043,1043,1043,1043,1043,1044,1044,1044,1044,1044,1044,1044,1044,1045,1044,1044,1044,1044,1044,1044,1044,1044,1044,1044,1045,1045,1044,1044,1044,1044,1044,1044,1044,1044,1044,1044,1044,1044,1045,1045,1045,1046,1046,1046,1046,1046,1046,1046,1046,1046,1046,1046,1046,1046,1046,1046,1046,1046,1046,1046,1046,1046,1046,1046,1046,1046,1046,1046,1046,1046,1047,1047,1047,1047,1047,1048,1047,1048,1048,1048,1047,1047,1047,1047,1047,1047,1047,1046,1048,1048,1048,1048,1047,1048,1048,1048,1048,1048,1048,1048,1049,1049,1049,1048,1048,1048,1048,1048,1048,1047,1048,1048,1048,1048,1048,1049,1049,1049,1049,1048,1049,1049,1049,1048,1048,1049,1048,1049,1049,1049,1049,1049,1049,1049,1049,1049,1049,1049,1049,1049,1049,1049,1049,1049,1049,1049,2047,2047,2047,2047,2047,2047,2047,2047,2047,2047,2047,2047,2047,2047,2047,2047,916,913,913,913,912,912,912,912,912,912,911,911,911,2047,2047,2047,2047,2047,2047,2047,2047,888,887,887,886,885,885,885,885,884,884,884,884,884,883,883,883,882,882,882,881,881,881,881,881,881,880,881,880,880,880,880,880,880,880,880,880,880,880,880,881,881,881,881,881,880,881,881,880,881,880,880,880,880,880,880,880,880,881,881,881,881,881,880,880,880,880,881,881,881,881,881,882,883,883,883,883,884,884,884,884,884,884,884,884,883,881,878,877,876,876,876,875,874,873,873,872,872,872,872,872,871,871,871,871,871,872,872,872,873,873,873,874,874,875,876,876,877,877,878,879,879,880,880,880,880,880,2047,2047,2047,2047,2047,2047,2047,2047,2047,2047,2047,2047,2047,2047,2047,2047,2047,2047,2047,2047,2047,2047,2047,2047,2047,2047,2047,1044,1044,1045,1045,1045,1045,1045,1045,1045,1044,1044,1044,1044,1044,2047,2047,2047,2047,2047,2047,2047,2047,2047,2047,2047,2047,2047,2047,2047,2047,2047,2047,2047,2047,2047,2047,2047,2047,2047,2047,2047,2047,2047,2047,2047,2047,2047,2047,2047,2047,2047,2047,2047,1027,1027,1027,1028,1028,2047,2047,2047,2047,2047,2047,2047,2047,2047,2047,2047,2047,2047,2047,2047,2047,2047,2047,2047,2047,2047,2047,2047,2047,2047,2047,2047,2047,2047,2047,2047,2047,2047,2047,2047,2047,2047,2047,2047,2047,2047,2047,2047,2047,2047,2047,2047,688,686,686,686,686,686,686,685,685,685,685,685,685,684,685,685,684,684,684,683,683,683,682,681,681,680,679,678,678,677,677,676,675,674,673,672,670,669,668,668,667,666,666,665,664,663,662,661,661,659,658,657,657,655,655,654,653,653,652,651,651,650,650,649,647,646,646,645,645,645,644,644,2047,2047,2047,2047,2047,638,638,638,638,637,637,636,636,636,634,634,633,632,631,630,630,630,630,629,628,627,627,626,625,625,624,624,623,623,622,621,620,619,618,618,617,616,616,615,614,613,612,611,610,609,609,609,608,608,2047,597,597,597,597,598,597,597,595,594,593,593,592,591,590,589,588,587,586,585,585,583,582,581,579,578,577,576,576,575,2047,2047,2047,2047,2047,2047,2047,2047
1040,1040,1041,1041,1041,1041,1041,1041,1041,1041,1041,1041,1041,1041,1041,1042,1042,1043,1043,1041,1041,1041,1041,1041,1041,1041,1041,1042,1042,1042,1042,1043,1042,1042,1042,1042,1043,1043,1042,1042,1044,1044,1044,1044,1044,1044,1044,1044,1044,1044,1044,1044,1044,1044,1045,1045,1045,1045,1045,1044,1045,1044,1044,1044,1044,1044,1044,1044,1044,1044,1044,1044,1044,1044,1045,1045,1045,1045,1046,1046,1046,1046,1046,1047,1046,1046,1046,1047,1047,1046,1046,1045,1045,1045,1046,1046,1046,1046,1047,1046,1046,1046,1046,1046,1046,1046,1046,1047,1047,1047,1047,1047,1047,1047,1048,1047,1047,1047,1047,1047,1047,1046,1047,1048,1048,1048,1047,1047,1048,1048,1048,1048,1048,1048,1048,1048,1049,1049,1048,1048,1048,1048,1048,1048,1047,1048,1048,1048,1048,1048,1048,1049,1048,1048,1048,1048,1048,1048,1048,1048,1049,1048,1049,1049,1049,1049,1049,1049,1049,1049,1049,1049,1049,1049,1049,1049,1049,1049,1049,1049,1048,2047,2047,2047,2047,2047,2047,2047,2047,2047,2047,2047,2047,2047,2047,2047,2047,916,913,913,913,912,912,912,912,911,912,911,911,911,912,2047,2047,2047,2047,889,889,888,888,887,886,886,885,885,884,884,884,884,884,884,884,883,883,883,882,882,881,881,881,881,881,881,881,880,881,880,880,880,880,880,880,880,880,880,880,880,880,880,880,880,880,880,880,881,881,881,880,880,880,880,880,880,880,880,880,880,881,880,880,880,880,880,880,880,880,881,881,881,881,881,882,883,883,883,884,884,884,884,884,884,884,884,883,882,878,877,876,876,875,874,874,873,873,872,872,872,871,871,871,871,871,871,871,872,872,872,873,873,873,874,874,875,875,876,877,877,878,879,879,880,881,880,881,881,2047,2047,2047,2047,2047,2047,2047,2047,2047,2047,2047,2047,2047,2047,2047,2047,2047,2047,2047,2047,2047,2047,2047,2047,2047,2047,1045,1045,1045,1045,1045,1045,1045,1045,1045,1045,1045,1044,1044,1044,1044,2047,2047,2047,2047,2047,2047,2047,2047,2047,2047,2047,2047,2047,2047,2047,2047,2047,2047,2047,2047,2047,2047,1027,1027,1027,1027,1027,1027,2047,2047,2047,2047,2047,2047,2047,2047,2047,2047,2047,1027,1027,1026,1029,1029,1028,2047,2047,2047,2047,2047,2047,2047,2047,2047,2047,2047,2047,2047,2047,2047,2047,2047,2047,2047,2047,2047,2047,2047,2047,2047,2047,2047,2047,2047,2047,2047,2047,2047,2047,2047,2047,2047,2047,2047,2047,2047,2047,2047,2047,2047,2047,688,686,686,686,685,686,685,685,685,685,684,684,684,684,684,684,683,683,683,682,682,682,681,681,681,680,679,678,678,677,677,676,675,674,673,671,670,669,668,668,667,666,665,665,663,663,662,661,661,658,657,656,656,655,654,654,653,652,652,651,650,650,649,649,647,646,646,645,644,644,644,644,2047,2047,2047,2047,2047,637,638,637,637,637,637,636,635,634,633,633,632,631,630,630,629,629,629,628,628,627,626,626,625,625,624,624,623,622,621,621,619,618,618,617,617,616,615,614,614,613,611,610,609,608,608,609,608,2047,2047,2047,2047,2047,597,597,597,596,595,594,593,593,592,591,590,589,588,587,586,585,585,584,582,581,579,578,577,577,576,575,2047,2047,2047,2047,2047,2047,2047,2047
2047,2047,2047,2047,1041,1042,1042,1041,1041,1041,1041,1041,1041,1041,1041,1041,1041,1042,1042,1042,1043,1044,1043,1043,1043,1043,1042,1043,1043,1042,1043,1042,1042,1042,1042,1042,1042,1042,1042,1042,1043,1044,1044,1044,1044,1044,1044,1044,1044,1044,1044,1044,1044,1044,1044,1044,1044,1044,1044,1044,1044,1044,1044,1044,1044,1044,1044,1044,1044,1044,1045,1045,1045,1045,1046,1045,1046,1045,1045,1046,1045,1046,1046,1046,1046,1046,1046,1046,1046,1046,1046,1046,1045,1045,1046,1046,1046,1046,1046,1048,1048,1046,1047,1046,1046,1046,1047,1047,1047,1047,1047,1047,1047,1047,1048,1047,1047,1047,1047,1047,1048,1046,1047,1048,1048,1048,1048,1048,1048,1048,1048,1048,1048,1048,1048,1048,1048,1048,1048,1048,1048,1048,1048,1048,1048,1048,1048,1048,1048,1048,1048,1048,1048,1048,1048,1048,1048,1048,1049,1049,1049,1049,1049,1049,1049,1049,1049,1049,1049,1049,1049,1048,1049,1049,1049,1049,1049,1049,1049,1050,2047,2047,2047,2047,2047,2047,2047,2047,2047,2047,2047,2047,2047,2047,2047,2047,2047,2047,912,913,913,912,912,912,912,912,912,912,911,911,2047,2047,2047,2047,2047,2047,2047,888,887,886,886,885,885,884,884,884,884,884,883,883,883,883,882,882,882,881,881,881,881,881,881,881,881,880,880,880,880,880,880,880,880,880,880,880,880,880,880,880,880,880,880,880,880,880,880,881,880,880,880,880,880,880,880,880,880,880,880,880,880,880,880,880,880,880,880,880,881,881,881,881,881,882,882,882,883,884,884,884,884,884,884,884,883,882,877,876,874,874,874,873,873,872,872,872,871,871,871,870,870,870,870,870,870,871,871,872,873,874,874,874,875,876,876,877,877,878,879,880,880,880,880,880,881,881,1046,1046,1046,1045,2047,2047,2047,2047,2047,2047,2047,1046,1046,1046,1046,1045,1046,1046,1047,1047,1046,2047,2047,2047,2047,2047,2047,2047,1045,1045,1045,1045,1045,1045,1045,1045,1045,1045,1045,1044,1044,2047,2047,2047,2047,2047,2047,2047,2047,2047,2047,2047,2047,2047,2047,2047,2047,2047,2047,2047,2047,1028,1029,1029,1029,1029,1029,1029,1028,1029,1028,1028,1028,1028,1029,2047,2047,2047,2047,2047,1027,1027,1027,1027,1027,1027,2047,2047,2047,2047,2047,2047,2047,2047,2047,2047,2047,2047,2047,2047,2047,2047,2047,2047,2047,2047,2047,2047,2047,2047,2047,2047,2047,2047,2047,2047,2047,2047,2047,2047,2047,2047,2047,2047,2047,2047,2047,2047,2047,2047,2047,688,687,687,687,687,686,687,685,685,685,685,685,685,685,684,684,684,683,683,682,682,682,682,681,681,680,680,679,678,677,676,677,675,674,673,673,671,670,669,668,668,667,666,665,665,663,662,661,661,659,658,656,655,655,654,653,653,652,652,651,650,650,649,649,648,646,645,645,644,643,643,643,643,643,642,2047,637,637,637,637,637,636,636,635,634,633,634,633,631,630,629,629,629,629,628,628,627,627,626,625,625,625,624,623,623,622,622,620,619,618,618,617,617,616,616,615,614,613,612,610,609,608,608,608,608,608,2047,2047,2047,2047,596,596,596,596,596,594,594,593,592,591,591,590,589,587,587,586,585,585,583,582,580,578,578,577,576,576,575,2047,2047,2047,2047,2047,2047,2047,2047
2047,2047,2047,2047,1041,1042,1042,1042,1042,1041,1041,1041,1041,1041,1041,1041,1041,1042,1042,1042,1043,1044,1043,1044,1042,1042,1042,1042,1042,1042,1042,1042,1042,1042,1042,1043,1042,1042,1042,1042,1043,1043,1044,1043,1044,1044,1044,1044,1044,1044,1044,1044,1043,1044,1044,1044,1044,1044,1044,1045,1044,1044,1044,1044,1044,1044,1044,1044,1044,1045,1045,1045,1045,1045,1045,1045,1045,1045,1045,1046,1046,1046,1046,1046,1046,1046,1046,1046,1046,1046,1046,1046,1046,1046,1046,1046,1046,1046,1046,1046,1046,1046,1047,1046,1046,1046,1046,1047,1047,1047,1046,1047,1047,1047,1048,1047,1047,1047,1047,1047,1047,1046,1046,1048,1048,1048,1048,1048,1048,1048,1048,1048,1048,1048,1048,1048,1048,1048,1048,1048,1048,1048,1048,1048,1048,1048,1048,1048,1048,1048,1048,1048,1048,1049,1048,1048,1048,1049,1049,1049,1049,1049,1049,1050,1049,1049,1049,1049,1049,1049,1049,1048,1049,1049,1049,1049,1049,1049,1049,1049,2047,2047,2047,2047,2047,2047,2047,2047,2047,2047,2047,2047,2047,2047,2047,2047,2047,2047,2047,913,913,912,912,912,912,912,912,911,911,911,2047,2047,2047,2047,2047,889,888,887,887,885,885,885,884,884,884,884,884,883,883,883,883,882,882,882,881,881,881,881,881,881,881,881,881,880,880,880,880,880,880,880,880,880,880,880,880,880,880,880,880,880,880,880,880,880,880,880,880,880,880,880,880,880,880,880,880,880,880,880,880,880,880,880,880,880,880,880,880,880,880,881,881,881,882,882,883,883,883,884,884,884,884,884,883,882,877,876,874,874,873,873,873,872,872,872,871,871,871,870,870,870,870,870,870,871,871,872,872,873,874,874,875,876,876,877,877,878,878,880,880,880,880,880,880,880,1046,1046,1046,2047,2047,2047,2047,2047,2047,2047,1045,1046,1046,1046,1046,1046,1046,1046,1046,1046,1046,1046,1046,1046,1046,2047,1046,1045,1045,1045,1045,1045,1045,1045,1045,1044,1044,1044,1044,1044,2047,2047,2047,2047,2047,2047,2047,2047,2047,2047,2047,2047,2047,2047,2047,2047,2047,2047,1029,1029,1029,1029,1029,1029,1029,1029,1029,1029,1028,1029,1028,1028,1028,1029,1029,1029,2047,2047,2047,2047,2047,1027,1027,1028,1027,1027,2047,2047,2047,2047,2047,2047,2047,2047,2047,2047,2047,2047,2047,2047,2047,2047,2047,2047,2047,2047,2047,2047,2047,2047,2047,2047,2047,2047,2047,2047,2047,2047,2047,2047,2047,2047,2047,2047,2047,2047,2047,2047,2047,2047,2047,688,688,687,687,687,686,686,685,685,685,684,684,684,684,683,683,683,683,682,682,682,682,681,681,681,680,679,678,678,677,676,676,675,674,673,672,671,670,669,668,668,667,666,665,664,663,662,661,660,659,657,656,655,654,653,653,653,652,651,651,650,649,649,648,646,646,645,644,643,642,643,643,643,643,642,2047,2047,637,636,636,636,636,635,635,634,633,633,631,631,630,629,629,629,628,628,628,627,626,626,625,625,624,624,623,622,621,621,619,619,618,618,617,616,615,615,614,613,612,611,610,609,608,607,607,607,2047,2047,2047,2047,596,596,596,596,596,595,594,594,593,592,591,590,589,587,586,586,585,584,584,582,581,580,578,578,577,576,575,575,2047,2047,2047,2047,2047,2047,2047,2047
2047,1041,2047,2047,1041,1041,1041,1041,1041,1041,1041,1041,1041,1041,1041,1041,1041,1041,1042,1042,1043,1043,1043,1043,1042,1042,1042,1042,1042,1042,1042,1042,1042,1042,1042,1042,1042,1042,1042,1042,1043,1043,1044,1044,1044,1044,1044,1044,1044,1044,1044,1044,1044,1044,1044,1044,1044,1045,1045,1045,1044,1044,1044,1044,1044,1044,1044,1044,1045,1045,1045,1045,1045,1045,1045,1045,1045,1045,1045,1046,1046,1046,1046,1046,1046,1046,1046,1046,1046,1047,1047,1047,1046,1046,1046,1046,1046,1046,1046,1046,1047,1047,1047,1047,1047,1047,1047,1047,1047,1047,1046,1047,1047,1047,1048,1047,1047,1047,1047,1048,1046,1046,1046,1048,1048,1047,1047,1048,1048,1048,1048,1048,1048,1048,1048,1048,1048,1048,1048,1048,1048,1048,1048,1048,1048,1048,1048,1048,1048,1048,1048,1049,1048,1048,1048,1048,1048,1048,1049,1049,1049,1049,1050,1050,1050,1050,1050,1049,1049,1049,1049,1048,1049,1049,1049,1049,1049,1049,1049,1049,2047,2047,2047,2047,2047,2047,2047,2047,2047,2047,2047,2047,2047,2047,2047,2047,2047,2047,2047,913,912,912,912,912,912,912,912,911,911,911,2047,2047,2047,2047,2047,888,887,887,885,885,885,885,884,884,883,884,883,883,883,883,883,882,882,882,881,881,881,881,881,881,881,881,880,880,880,880,880,880,880,880,880,880,880,880,880,880,880,880,880,880,880,880,880,880,880,880,880,880,880,880,880,880,880,880,880,880,880,880,880,880,880,880,880,880,880,880,880,880,880,880,881,881,881,881,882,883,883,884,884,884,884,884,883,883,877,876,874,874,874,873,873,872,872,872,871,871,871,870,870,870,870,870,870,871,871,872,873,873,874,874,875,876,876,877,878,878,878,880,879,880,880,880,880,880,1049,1046,1045,2047,2047,2047,2047,2047,2047,2047,1045,1046,1046,1046,1046,1045,1046,1046,1046,1046,1046,1046,1046,1046,1046,1046,1046,1045,1045,1045,1045,1045,1045,1044,1044,1043,1043,1043,1043,2047,2047,2047,2047,2047,2047,2047,2047,2047,2047,2047,2047,2047,2047,2047,2047,2047,2047,1029,1029,1029,1029,1029,1029,1029,1029,1029,1029,1029,1029,1029,1028,1028,1028,1029,1029,2047,2047,2047,1028,2047,1028,1027,1027,1027,1027,1027,1027,2047,2047,2047,2047,2047,2047,2047,2047,2047,2047,2047,2047,2047,2047,2047,2047,2047,2047,2047,2047,2047,2047,2047,2047,2047,2047,2047,2047,2047,2047,2047,2047,2047,2047,2047,2047,2047,2047,2047,2047,2047,2047,2047,2047,688,688,687,686,686,686,685,685,684,685,684,684,684,683,683,683,682,682,682,682,682,681,681,681,681,680,679,678,677,677,676,675,674,674,673,672,671,670,669,669,668,666,666,664,664,662,662,661,660,659,658,655,655,654,653,653,652,651,651,650,649,649,648,647,646,645,644,644,643,642,642,642,643,643,642,2047,2047,636,636,636,636,635,635,634,634,633,633,631,630,630,629,629,629,628,627,627,627,626,626,625,624,624,624,622,622,621,620,619,618,618,617,616,615,614,614,614,612,611,610,609,608,607,606,606,606,2047,2047,2047,2047,595,595,595,596,595,595,594,593,592,591,590,589,588,587,586,585,585,583,582,582,580,579,578,577,577,576,575,575,2047,2047,2047,2047,2047,2047,2047,2047
2047,1041,1041,1041,1041,1041,1041,1041,1041,1041,1041,1041,1041,1041,1041,1041,1041,1041,1042,1042,1044,1044,1043,1043,1042,1042,1042,1042,1042,1041,1042,1042,1042,1042,1042,1042,1042,1042,1042,1042,1043,1043,1043,1043,1043,1044,1044,1044,1044,1044,1044,1044,1044,1044,1044,1044,1045,1045,1044,1045,1044,1044,1044,1044,1044,1044,1044,1044,1045,1045,1045,1045,1045,1045,1045,1045,1045,1045,1045,1046,1046,1046,1046,1046,1046,1046,1046,1046,1046,1046,1046,1046,1046,1046,1046,1046,1046,1046,1045,1046,1047,1046,1047,1047,1047,1046,1046,1047,1047,1047,1046,1047,1047,1048,1048,1047,1047,1047,1048,1048,1047,1047,1047,1047,1047,1047,1047,1048,1048,1048,1048,1048,1048,1048,1048,1048,1048,1048,1048,1048,1048,1049,1048,1048,1048,1048,1048,1048,1048,1048,1048,1048,1048,1048,1048,1048,1048,1048,1048,1049,1049,1049,1050,1050,1050,1050,1050,1050,1049,1049,1049,1048,1049,1049,1049,1049,1049,1049,1049,1049,1049,2047,2047,2047,2047,2047,2047,2047,2047,2047,2047,2047,2047,2047,2047,2047,2047,2047,2047,913,912,912,912,912,912,912,912,911,911,911,912,2047,2047,2047,2047,888,887,886,885,885,885,884,884,883,883,884,883,883,883,883,883,882,882,881,881,881,881,881,881,881,881,881,881,880,880,880,880,880,880,880,880,880,880,880,880,880,880,880,880,880,880,880,880,880,880,880,880,880,880,880,880,880,880,880,880,880,880,880,880,880,880,880,880,880,880,880,880,880,880,880,880,881,881,881,882,883,883,884,884,884,884,884,884,883,876,876,874,873,873,873,873,872,872,872,871,871,871,870,870,870,869,870,870,871,871,872,872,873,874,874,875,876,877,877,878,878,879,880,880,881,880,880,880,880,1048,1046,1046,2047,2047,2047,2047,2047,2047,2047,1045,1046,1045,1047,1046,1045,1046,1046,1046,1046,1046,1046,1046,1046,1046,1046,1046,1046,1045,1045,1045,1045,1044,1043,1043,1043,1043,1043,2047,2047,2047,2047,2047,2047,2047,2047,2047,2047,2047,2047,2047,2047,2047,2047,2047,2047,2047,2047,1029,1029,1029,1029,1029,1029,1029,1029,1029,1029,1029,1029,1028,1028,1028,1029,1029,1029,1029,1028,1028,1028,1028,1028,1028,1028,1028,1028,1027,2047,2047,2047,2047,2047,2047,2047,2047,2047,2047,2047,2047,2047,2047,2047,2047,2047,2047,2047,2047,2047,2047,2047,2047,2047,2047,2047,2047,2047,2047,2047,2047,2047,2047,2047,2047,2047,2047,2047,2047,2047,2047,2047,2047,688,687,687,686,686,685,685,684,684,684,683,683,683,683,682,682,682,682,682,682,682,681,681,681,681,680,679,678,677,677,676,675,674,674,673,672,671,670,669,669,668,666,666,664,664,662,662,661,660,659,658,655,654,654,653,653,652,651,650,650,649,648,647,647,646,645,644,644,643,642,642,642,643,643,643,2047,2047,636,636,636,635,634,634,634,633,632,631,630,630,629,629,628,628,627,627,627,626,626,625,624,624,623,622,622,621,620,619,618,617,616,616,615,615,614,613,613,612,611,610,609,607,607,606,606,2047,2047,2047,2047,2047,594,593,594,595,594,594,593,593,592,591,590,589,588,587,586,586,585,583,582,581,580,579,578,577,577,576,575,575,2047,2047,2047,2047,2047,2047,2047,2047
1040,1041,1040,1041,1041,1041,1041,1041,1041,1041,1041,1041,1041,1041,1041,1041,1041,1041,1042,1041,1042,1043,1042,1042,1041,1041,1041,1041,1041,1041,1042,1042,1042,1042,1042,1042,1042,1042,1042,1042,1043,1042,1043,1042,1043,1044,1044,1044,1044,1044,1044,1044,1044,1044,1044,1045,1045,1045,1045,1045,1045,1044,1044,1044,1044,1044,1044,1045,1045,1045,1046,1046,1045,1045,1045,1045,1045,1045,1045,1045,1045,1045,1046,1045,1046,1046,1046,1046,1046,1046,1046,1046,1045,1046,1046,1045,1045,1045,1045,1046,1046,1046,1047,1047,1047,1046,1047,1047,1047,1047,1047,1047,1047,1048,1048,1048,1048,1047,1048,1048,1047,1047,1047,1047,1047,1047,1047,1048,1048,1048,1048,1048,1048,1048,1048,1048,1048,1048,1048,1048,1048,1049,1048,1048,1048,1048,1049,1049,1049,1049,1049,1049,1048,1048,1048,1048,1048,1048,1048,1048,1049,1050,1050,1050,1049,1049,1050,1049,1049,1049,1049,1048,1049,1049,1049,1049,1049,1049,1049,1049,1049,2047,2047,2047,2047,2047,2047,2047,2047,2047,2047,2047,2047,2047,2047,2047,2047,2047,2047,912,912,912,912,912,912,912,911,911,911,910,910,2047,2047,888,888,888,887,885,885,885,884,884,884,883,883,883,883,882,883,883,882,882,882,881,881,881,881,881,881,881,881,881,881,880,880,880,880,880,880,880,880,880,880,880,880,880,880,880,880,880,880,880,880,880,880,880,880,880,880,880,880,879,879,879,880,880,880,880,880,880,880,880,880,880,880,880,880,880,880,880,881,881,881,881,882,883,883,884,884,884,884,884,884,884,884,876,874,873,873,873,873,872,872,872,871,871,870,870,869,869,869,870,869,871,871,872,872,873,874,874,876,876,877,878,878,878,879,880,880,881,880,880,880,880,1049,1047,2047,2047,2047,2047,2047,2047,2047,2047,1045,1046,1045,1045,1046,1045,1046,1046,1046,1046,1045,1045,1046,1045,1046,1046,1046,1046,1046,1045,1045,1045,1044,1044,1043,1043,1043,2047,2047,2047,2047,2047,2047,2047,2047,2047,2047,2047,2047,2047,2047,2047,2047,2047,2047,2047,2047,2047,1029,1029,1029,1029,1029,1029,1029,1029,1029,1028,1029,1029,1028,1028,1028,1028,1029,1028,1028,1028,1029,1029,1028,1028,1028,1028,1028,1028,1028,1027,1026,2047,2047,2047,2047,2047,2047,2047,2047,2047,2047,2047,2047,2047,2047,2047,2047,2047,2047,2047,2047,2047,2047,2047,2047,2047,2047,2047,2047,2047,2047,2047,2047,2047,2047,2047,2047,2047,2047,2047,2047,2047,2047,2047,2047,687,686,685,685,685,685,683,683,682,682,682,682,682,682,682,682,681,681,681,681,681,680,680,679,678,677,677,676,675,675,674,674,673,672,670,670,669,669,668,667,666,665,664,662,662,661,660,659,658,655,655,654,654,653,652,652,651,650,649,648,647,646,645,644,644,643,642,641,641,641,642,2047,2047,2047,635,2047,635,634,634,633,633,633,632,631,630,630,629,629,628,627,627,626,626,626,626,625,625,624,623,622,622,621,620,619,618,617,617,616,615,615,614,613,613,612,612,610,609,608,607,606,605,605,2047,2047,2047,2047,2047,593,593,593,594,594,593,593,592,591,590,589,588,587,586,586,585,584,583,582,581,580,578,577,577,576,576,575,574,2047,2047,2047,2047,2047,2047,2047,2047
1040,1041,1040,1041,1041,1041,1041,1041,1041,1041,1041,1041,1041,1041,1041,1041,1041,1042,1042,1042,1042,1043,1042,1042,1041,1041,1041,1041,1041,1041,1041,1042,1042,1042,1042,1042,1042,1042,1042,1042,1042,1042,1042,1042,1043,1043,1043,1044,1044,1044,1044,1044,1044,1044,1044,1045,1045,1045,1045,1045,1045,1044,1044,1044,1044,1044,1044,1045,1045,1045,1046,1046,1045,1045,1045,1045,1045,1045,1045,1045,1045,1045,1046,1045,1046,1046,1046,1046,1046,1046,1046,1046,1045,1045,1045,1045,1045,1045,1045,1046,1047,1046,1047,1047,1047,1047,1047,1047,1047,1047,1047,1047,1047,1048,1048,1048,1048,1048,1048,1048,1047,1047,1047,1047,1047,1047,1047,1048,1048,1047,1047,1048,1048,1048,1048,1048,1048,1048,1048,1048,1048,1049,1048,1048,1048,1048,1048,1049,1049,1049,1049,1049,1048,1048,1048,1049,1048,1048,1048,1048,1049,1049,1050,1049,1049,1049,1049,1049,1049,1048,1048,1048,1049,1049,1049,1049,1049,1049,1049,1049,1049,2047,2047,2047,2047,2047,2047,2047,2047,2047,2047,2047,2047,2047,2047,2047,2047,2047,2047,2047,912,912,912,912,912,912,911,911,911,911,912,2047,2047,889,888,888,887,885,885,885,884,884,884,883,883,883,883,882,882,882,882,882,882,881,881,881,881,881,881,881,881,881,880,880,880,880,880,880,880,880,880,880,880,880,880,880,880,880,880,880,880,880,880,880,880,880,880,880,880,879,879,879,879,879,880,880,880,880,880,880,880,880,880,880,880,880,880,880,880,880,880,880,881,881,881,882,883,883,884,884,884,884,884,883,883,877,876,873,873,873,872,872,872,872,871,871,871,870,870,869,869,869,869,871,871,872,872,873,874,874,875,876,877,878,878,878,879,880,880,881,880,879,880,880,1048,1047,1046,2047,2047,2047,2047,2047,2047,2047,1045,1046,1045,1045,1045,1045,1046,1045,1046,1046,1046,1045,1045,1046,1046,1046,1046,1046,1046,1046,1046,1045,1045,1044,1043,1043,1043,2047,2047,2047,2047,2047,2047,2047,2047,2047,2047,2047,2047,2047,2047,2047,2047,2047,2047,2047,2047,2047,1029,1029,1029,1029,1029,1029,1029,1029,1029,1029,1029,1029,1029,1029,1028,1028,1029,1028,1028,1028,1028,1029,1028,1029,1028,1029,1028,1028,1028,1027,1026,2047,2047,2047,2047,2047,2047,2047,2047,2047,2047,2047,2047,2047,2047,2047,2047,2047,2047,2047,2047,2047,2047,2047,2047,2047,2047,2047,2047,2047,2047,2047,2047,2047,2047,2047,2047,2047,2047,2047,2047,2047,2047,2047,686,686,685,685,684,683,683,682,682,682,682,682,682,681,681,681,681,681,681,681,681,681,680,680,679,678,677,676,676,675,675,674,673,673,672,670,670,669,669,668,666,666,665,664,662,662,661,660,659,658,656,655,654,654,653,652,652,651,650,649,648,646,646,645,644,643,642,642,641,641,640,2047,640,2047,2047,632,2047,633,633,633,633,632,632,631,631,630,630,629,629,628,627,627,626,626,626,626,625,624,623,623,621,621,620,619,618,617,617,616,615,614,614,614,613,613,612,611,610,607,607,606,606,605,604,2047,2047,2047,2047,2047,594,593,593,594,593,593,592,592,591,590,589,588,587,586,585,585,584,582,582,581,580,578,577,577,576,576,575,574,2047,2047,2047,2047,2047,2047,2047,2047
1040,1041,1041,1041,1041,1041,1041,1041,1041,1041,1041,1041,1041,1041,1041,1041,1041,1042,1042,1042,1042,1042,1042,1042,1041,1041,1041,1041,1041,1041,1041,1042,1042,1042,1042,1042,1042,1043,1043,1042,1043,1042,1042,1043,1043,1043,1044,1044,1044,1044,1044,1044,1044,1044,1044,1045,1045,1045,1045,1045,1045,1044,1044,1044,1044,1044,1045,1045,1045,1046,1046,1046,1045,1045,1045,1045,1045,1045,1045,1045,1046,1046,1046,1046,1046,1046,1045,1045,1046,1046,1046,1046,1046,1046,1046,1046,1046,1046,1045,1045,1047,1046,1047,1048,1048,1047,1047,1047,1047,1047,1046,1046,1046,1046,1046,1046,1046,1047,1047,1047,1047,1047,1047,1047,1047,1047,1048,1048,1048,1048,1048,1048,1048,1048,1048,1048,1048,1048,1048,1048,1048,1048,1048,1048,1048,1049,1049,1049,1049,1048,1048,1048,1048,1048,1048,1048,1048,1049,1049,1049,1049,1049,1049,1049,1049,1049,1049,1049,1049,1049,1048,1048,1049,1049,1049,1049,1049,1049,1049,1049,1049,1050,2047,2047,2047,2047,2047,2047,2047,2047,2047,2047,2047,2047,2047,2047,2047,2047,2047,912,912,912,913,912,912,912,912,912,912,912,912,913,913,888,888,886,886,885,885,885,884,884,884,883,883,883,883,882,882,882,881,881,881,880,881,880,881,881,881,881,881,880,880,880,880,880,880,880,880,880,880,880,880,879,880,880,880,880,880,880,880,880,880,880,879,880,880,880,880,879,878,879,880,880,880,880,880,880,880,880,880,880,879,880,880,880,880,880,880,880,880,880,881,881,881,881,882,883,883,883,883,883,883,876,874,873,873,872,872,872,872,871,871,871,871,870,870,869,869,869,869,870,870,871,872,873,873,873,874,875,876,877,878,878,879,879,880,880,881,880,2047,2047,2047,2047,2047,1048,1048,2047,1048,1047,1047,1046,1046,1046,1046,1046,1046,1046,1047,1046,1046,1046,1046,1046,1046,1046,1046,1046,1046,1046,1046,1046,1045,1045,1045,1044,1044,1044,1044,1044,2047,2047,2047,2047,2047,2047,2047,2047,2047,2047,2047,2047,2047,2047,2047,2047,2047,2047,2047,2047,2047,2047,1030,1029,1029,1029,1029,1028,1029,1029,1028,1028,1028,1028,1028,1028,1028,1028,1028,1028,1028,1028,1028,1028,1028,1028,1028,1029,1028,2047,2047,2047,2047,2047,2047,2047,2047,2047,2047,2047,2047,2047,2047,2047,2047,2047,2047,2047,2047,2047,2047,2047,2047,2047,2047,2047,2047,2047,2047,2047,2047,2047,2047,2047,2047,2047,2047,2047,2047,2047,2047,2047,2047,2047,2047,2047,687,686,685,685,684,683,682,681,681,681,681,681,681,681,681,681,680,680,680,680,679,679,678,678,677,677,676,675,674,674,673,673,672,671,670,668,667,667,666,665,664,663,662,661,660,659,658,657,657,656,654,653,651,651,650,649,649,648,647,646,645,645,644,642,642,641,640,639,638,638,637,637,636,2047,2047,630,630,2047,630,630,630,630,630,629,629,628,628,627,626,626,625,625,624,624,624,623,622,621,621,621,618,618,617,617,616,615,614,614,613,612,612,611,610,609,609,608,607,606,605,604,603,603,602,602,598,596,2047,593,593,593,593,592,592,591,590,589,588,587,587,586,585,584,583,582,581,580,579,578,578,577,575,575,575,574,573,573,2047,2047,2047,2047,2047,2047,2047,2047
1039,1040,1039,1039,1040,1040,1040,1040,1041,1041,1041,1041,1042,1041,1042,1042,1043,1043,1044,1044,1043,1044,1043,1042,1042,1042,1042,1042,1042,1042,1042,1042,1042,1042,1042,1042,1042,1042,1043,1043,2047,2047,1044,1044,1044,1044,1044,1044,1045,1044,1045,1044,1044,1044,1044,1044,1044,1044,1044,1044,1044,1044,1044,1044,1044,1045,1045,1045,1046,1046,1046,1046,1046,1045,1045,1045,1045,1045,1045,1045,1046,1046,1046,1046,1046,1046,1046,1046,1046,1046,1046,1047,1046,1047,1047,1046,1046,1045,1045,1045,1047,1046,1046,1047,1047,1047,1047,1047,1047,1047,1046,1046,1046,1046,1046,1046,1046,1047,1047,1047,1047,1047,1047,1047,1047,1047,1048,1048,1048,1048,1048,1048,1048,1048,1048,1048,1048,1048,1048,1048,1048,1048,1048,1048,1048,1049,1049,1049,1049,1048,1048,1048,1048,1048,1048,1048,1049,1049,1049,1049,1049,1049,1049,1049,1049,1049,1049,1049,1049,1048,1048,1048,1049,1049,1049,1049,1049,1049,1049,1049,1049,1050,2047,2047,2047,2047,2047,2047,2047,2047,2047,2047,2047,2047,2047,2047,2047,2047,913,912,912,912,912,912,912,912,912,911,912,912,912,912,889,888,888,886,886,886,885,885,884,884,883,883,883,882,882,882,882,881,881,881,881,880,881,881,881,881,881,881,881,880,880,880,880,880,880,879,880,879,879,880,879,880,880,880,880,880,880,880,880,880,880,880,879,880,880,880,880,879,878,879,879,880,880,880,880,880,880,880,880,880,879,880,880,880,880,880,880,880,880,880,881,881,881,881,882,882,883,883,883,883,883,876,874,873,873,872,872,872,871,871,871,871,871,870,870,869,869,869,869,870,869,871,871,872,873,873,873,874,875,876,877,879,879,880,881,881,881,881,2047,2047,2047,2047,2047,2047,2047,2047,2047,2047,2047,2047,2047,1045,1045,1045,1045,1045,1046,1046,1046,1046,1046,1046,1046,1046,1046,1046,1046,1046,1046,1046,1045,1045,1044,1044,1044,1044,1043,2047,2047,2047,2047,2047,2047,2047,2047,2047,2047,2047,2047,2047,2047,2047,2047,2047,2047,2047,2047,2047,2047,2047,1030,1029,1029,1029,1029,1028,1029,1028,1028,1028,1028,1028,1029,1029,1028,1028,1028,1029,1028,1029,1028,1028,1028,1028,1029,1028,1028,2047,2047,2047,2047,2047,2047,2047,2047,2047,2047,2047,2047,2047,2047,2047,2047,2047,2047,2047,2047,2047,2047,2047,2047,2047,2047,2047,2047,2047,2047,2047,2047,2047,2047,2047,2047,2047,2047,2047,2047,2047,2047,2047,2047,2047,2047,2047,2047,686,685,685,684,683,682,681,682,681,681,681,681,680,681,680,680,680,680,679,679,679,678,678,677,676,675,675,674,674,673,673,672,671,670,668,667,666,666,665,664,663,662,661,660,659,658,658,657,656,654,652,651,650,650,649,649,648,647,646,645,644,643,642,641,640,639,638,638,637,637,637,636,636,636,630,630,630,630,629,629,629,629,629,628,627,627,626,626,625,625,624,623,623,622,622,621,620,620,618,617,616,616,616,615,614,614,613,612,611,610,609,609,608,608,607,606,605,604,603,602,602,601,599,598,596,594,594,593,593,593,592,591,590,589,588,588,587,586,586,585,584,583,582,581,580,579,579,578,577,575,575,575,574,574,573,2047,2047,2047,2047,2047,2047,2047,2047
1040,1040,1039,1039,1040,1040,1040,1040,1041,1041,1041,1041,1041,1041,1042,1042,1042,1043,1043,1043,1043,1043,1042,1042,1042,1042,1042,1042,1042,1042,1042,1043,1043,1043,1043,1042,1043,1043,1044,1044,1043,1044,1044,1044,1044,1044,1044,1044,1045,1045,1045,1045,1044,1044,1044,1044,1044,1044,1044,1044,1044,1044,1044,1044,1045,1045,1045,1046,1046,1046,1047,1046,1046,1046,1045,1045,1045,1045,1044,1045,1045,1045,1046,1045,1046,1046,1046,1046,1046,1046,1046,1046,1046,1046,1046,1046,1045,1045,1045,1045,1046,1045,1045,1046,1047,1047,1047,1048,1048,1048,1046,1046,1046,1046,1046,1046,1046,1046,1047,1047,1047,1047,1048,1047,1047,1047,1048,1048,1048,1047,1047,1048,1048,1047,1047,1047,1047,1048,1047,1048,1048,1048,1048,1048,1048,1049,1049,1049,1049,1049,1049,1049,1048,1048,1048,1048,1049,1049,1049,1049,1049,1049,1049,1049,1049,1049,1049,1049,1049,1048,1048,1049,1049,1049,1049,1049,1049,1049,1049,1049,1049,1050,2047,2047,2047,2047,2047,2047,2047,2047,2047,2047,2047,2047,2047,2047,2047,2047,913,913,913,912,912,912,912,912,911,911,911,912,912,889,889,889,888,887,886,885,885,884,884,884,883,883,882,882,882,882,882,881,881,881,881,881,881,881,881,881,881,881,881,880,880,880,880,880,880,880,880,879,879,880,880,880,880,880,880,880,880,880,880,880,880,880,879,880,880,880,880,878,878,878,879,879,880,880,880,880,880,880,880,880,880,880,880,880,880,880,880,880,880,880,881,881,881,881,882,882,883,883,883,883,881,876,874,873,873,872,872,872,871,871,871,871,871,870,869,870,869,869,869,869,869,871,871,872,872,873,873,874,875,876,877,879,879,880,881,881,881,881,881,2047,2047,2047,2047,2047,2047,2047,2047,2047,2047,2047,2047,2047,1045,1045,1045,1046,1047,1047,1046,1046,1046,1046,1046,1046,1046,1046,1046,1046,1046,1045,1045,1045,1044,1044,1044,1044,1044,2047,2047,2047,2047,2047,2047,2047,2047,2047,2047,2047,2047,2047,2047,2047,2047,2047,2047,2047,2047,2047,2047,2047,1030,1029,1029,1029,1029,1028,1028,1028,1028,1028,1029,1029,1029,1029,1029,1028,1029,1029,1028,1028,1028,1028,1028,1028,1029,1028,1028,2047,2047,2047,2047,2047,2047,2047,2047,2047,2047,2047,2047,2047,2047,2047,2047,2047,2047,2047,2047,2047,2047,2047,2047,2047,2047,2047,2047,2047,2047,2047,2047,2047,2047,2047,2047,2047,2047,2047,2047,2047,2047,2047,2047,2047,2047,2047,2047,686,683,683,682,682,681,681,681,681,681,680,680,680,680,680,679,679,679,679,679,678,678,677,677,676,675,675,674,674,674,673,672,671,670,668,667,666,666,665,664,663,662,661,660,659,658,658,657,656,654,653,651,650,650,649,648,647,646,646,645,644,643,642,641,640,639,638,638,638,637,637,637,636,636,629,629,628,629,629,629,629,628,628,627,626,626,626,625,625,624,623,623,622,621,621,620,619,618,617,616,616,615,615,614,614,613,612,612,610,609,608,608,607,607,606,605,605,603,602,601,601,600,599,598,596,595,594,593,593,592,592,591,590,589,587,587,586,586,585,584,583,582,581,580,580,579,579,578,577,576,575,575,574,573,573,2047,2047,2047,2047,2047,2047,2047,2047
1040,1040,1039,1039,1040,1040,1040,1039,1040,1040,1041,1041,1041,1041,1042,1042,1042,1043,1043,1043,1042,1043,1042,1042,1043,1042,1042,1042,1042,1042,1042,1043,1043,1043,1043,1042,1043,1043,1044,1044,1043,1044,1043,1044,1044,1044,1044,1044,1045,1045,1045,1045,1045,1045,1044,1044,1044,1044,1044,1044,1044,1044,1044,1044,1045,1045,1045,1045,1046,1046,1046,1046,1046,1046,1045,1045,1045,1044,1044,1045,1045,1045,1045,1045,1046,1046,1046,1046,1046,1046,1046,1046,1046,1046,1046,1046,1045,1045,1045,1045,1046,1046,1045,1046,1046,1046,1047,1048,1047,1046,1046,1046,1046,1046,1045,1045,1046,1046,1047,1047,1047,1047,1048,1047,1047,1047,1047,1048,1048,1047,1047,1048,1048,1048,1048,1048,1048,1048,1048,1048,1048,1048,1048,1048,1048,1049,1049,1049,1049,1049,1049,1049,1049,1048,1048,1048,1049,1049,1049,1049,1049,1049,1049,1049,1049,1049,1049,1049,1048,1048,1048,1048,1049,1049,1049,1049,1049,1050,1049,1050,1050,1050,1050,2047,2047,2047,2047,2047,2047,2047,2047,2047,2047,2047,2047,2047,2047,2047,913,913,913,912,912,912,912,912,911,911,911,912,912,889,889,888,888,887,887,886,885,884,884,883,883,883,882,882,882,881,881,881,881,881,881,881,881,881,881,881,881,880,881,880,880,880,880,880,880,880,879,879,879,879,879,880,880,880,880,880,879,879,880,879,880,880,879,879,880,880,880,878,878,879,879,879,879,879,879,879,879,879,879,879,879,880,880,880,881,880,880,880,880,880,881,881,881,881,881,882,883,882,881,881,879,876,874,874,873,872,872,872,871,871,871,871,870,870,870,869,869,869,869,869,869,870,871,871,872,872,873,874,875,877,878,878,879,880,881,881,881,881,882,2047,2047,2047,2047,2047,2047,2047,2047,2047,2047,2047,2047,2047,2047,1045,1046,1046,1047,1046,1046,1045,1046,1046,1046,1046,1046,1046,1046,1046,1045,1045,1045,1045,1044,1044,1044,1044,1044,2047,2047,2047,2047,2047,2047,2047,2047,2047,1035,1034,2047,2047,2047,2047,2047,2047,2047,2047,2047,2047,2047,2047,1029,1029,1029,1028,1028,1028,1028,1028,1028,1028,1028,1028,1029,1029,1029,1029,1029,1029,1028,1028,1028,1028,1028,1028,1028,1028,2047,2047,2047,2047,2047,2047,2047,2047,2047,2047,2047,2047,2047,2047,2047,2047,2047,2047,2047,2047,2047,2047,2047,2047,2047,2047,2047,2047,2047,2047,2047,2047,2047,2047,2047,2047,2047,2047,2047,2047,2047,2047,2047,2047,2047,2047,2047,2047,2047,682,682,682,682,682,681,681,681,680,680,680,679,679,679,679,678,678,678,678,678,678,677,677,676,675,675,675,674,674,673,673,672,671,670,668,667,666,666,665,664,663,662,661,660,660,659,658,657,656,654,652,651,650,650,649,648,648,647,646,645,643,642,642,641,640,639,638,638,637,637,637,636,636,629,629,628,628,628,628,628,628,628,627,626,626,626,625,625,624,623,623,622,621,621,620,618,617,616,615,615,615,614,614,614,613,612,612,611,610,609,607,607,607,606,606,605,604,602,601,600,600,600,598,596,595,594,593,593,592,592,592,591,590,588,587,587,586,586,585,584,583,582,581,580,580,579,579,578,577,576,576,575,574,573,573,2047,2047,2047,2047,2047,2047,2047,2047
1040,1040,1040,1040,1040,1041,1040,1040,1040,1040,1041,1041,1041,1041,1041,1042,1042,1042,1042,1042,1042,1043,1042,1042,1042,1042,1042,1042,1043,1043,1043,1043,1043,1043,1043,1042,1043,1043,1043,1043,1043,1043,1043,1044,1044,1044,1044,1044,1045,1045,1045,1045,1045,1045,1044,1044,1044,1044,1044,1044,1044,1044,1044,1044,1044,1045,1045,1046,1046,1047,1047,1046,1045,1045,1045,1045,1044,1044,1044,1044,1045,1045,1045,1045,1046,1046,1046,1046,1046,1046,1046,1046,1045,1046,1046,1045,1046,1045,1045,1045,1046,1046,1045,1046,1046,1045,1046,1047,1047,1046,1046,1046,1045,1046,1045,1045,1045,1046,1046,1046,1047,1047,1047,1047,1047,1048,1048,1048,1048,1047,1047,1048,1047,1048,1048,1048,1048,1048,1048,1048,1048,1048,1048,1048,1048,1049,1049,1049,1049,1049,1049,1049,1049,1048,1049,1049,1049,1049,1049,1049,1049,1049,1049,1049,1049,1049,1048,1048,1049,1048,1049,1049,1049,1049,1049,1049,1049,1050,1049,1050,1050,1050,1050,1051,2047,2047,2047,2047,2047,2047,2047,2047,2047,2047,2047,2047,2047,2047,2047,913,913,912,912,912,912,912,911,911,911,911,890,889,889,888,888,887,887,885,885,884,883,883,883,882,882,882,882,881,881,881,881,881,881,881,881,881,881,880,880,880,880,880,880,880,880,879,880,879,879,879,879,880,880,880,880,880,880,880,879,879,879,879,879,879,878,878,879,880,878,878,878,879,879,879,879,879,880,880,880,879,880,880,880,880,880,880,881,880,880,881,880,881,881,881,881,881,881,882,883,882,881,882,880,876,874,874,873,872,872,872,871,871,871,871,871,870,870,870,869,869,869,869,869,870,871,871,872,872,873,873,874,875,877,878,879,880,881,881,881,881,2047,2047,2047,2047,2047,2047,2047,2047,2047,2047,2047,2047,2047,2047,2047,2047,2047,2047,2047,1046,1046,1045,1045,1046,1045,1046,1045,1045,1045,1046,1046,1045,1045,1045,1044,1044,1044,1043,1043,2047,2047,2047,2047,2047,2047,2047,2047,1034,1034,1034,1034,2047,2047,2047,2047,2047,2047,2047,2047,2047,2047,2047,2047,1028,1028,1028,1028,1028,1029,1029,1028,1028,1028,1029,1029,1029,1029,1029,1029,1029,1028,1028,1028,1028,1028,1028,1028,1028,2047,2047,2047,2047,2047,2047,2047,2047,2047,2047,2047,2047,2047,2047,2047,2047,2047,2047,2047,2047,2047,2047,2047,2047,2047,2047,2047,2047,2047,2047,2047,2047,2047,2047,2047,2047,2047,2047,2047,2047,2047,2047,2047,2047,2047,2047,2047,2047,697,697,682,681,682,682,681,680,680,680,679,679,679,679,679,679,678,678,678,678,678,678,677,677,676,675,675,674,674,674,674,673,672,671,670,668,667,666,666,665,664,663,662,661,661,659,658,658,657,655,654,653,651,650,650,649,649,648,647,646,644,643,642,642,641,640,639,638,638,637,637,636,636,634,634,629,628,628,628,628,628,628,627,626,626,626,625,625,624,623,623,622,621,621,619,619,618,617,616,615,615,614,614,614,613,613,611,611,610,609,608,607,606,606,606,605,604,604,602,601,600,600,599,597,596,594,594,593,592,592,592,592,591,590,588,587,586,586,585,585,584,583,582,581,580,580,579,579,578,577,576,575,575,574,573,573,2047,2047,2047,2047,2047,2047,2047,2047
1040,1040,1040,1040,1041,1041,1040,1040,1040,1040,1041,1041,1041,1041,1041,1042,1042,1043,1042,1043,1042,1043,1042,1042,1042,1042,1042,1042,1042,1042,1043,1043,1043,1043,1042,1042,1042,1042,1043,1042,1042,1043,1043,1044,1044,1044,1044,1044,1044,1044,1045,1044,1044,1045,1044,1044,1044,1044,1044,1044,1044,1044,1044,1044,1045,1045,1045,1045,1046,1046,1046,1046,1045,1045,1045,1045,1044,1044,1044,1044,1045,1045,1045,1045,1046,1046,1046,1046,1046,1046,1046,1046,1046,1046,1046,1046,1046,1045,1045,1045,1046,1045,1045,1046,1046,1045,1046,1047,1047,1045,1046,1046,1046,1046,1045,1045,1045,1046,1046,1046,1046,1047,1047,1047,1047,1047,1048,1048,1048,1048,1048,1048,1048,1047,1048,1048,1048,1047,1047,1047,1047,1047,1047,1048,1048,1049,1049,1049,1049,1049,1049,1049,1049,1048,1049,1049,1049,1049,1049,1049,1049,1049,1049,1049,1049,1049,1049,1049,1049,1049,1049,1049,1049,1049,1049,1049,1049,1049,1049,1049,1050,1050,1050,1050,2047,2047,2047,2047,2047,2047,2047,2047,2047,2047,2047,2047,2047,2047,2047,912,912,912,912,912,912,912,912,912,912,2047,890,890,889,889,888,887,886,885,884,884,883,883,882,882,881,881,881,881,881,881,881,880,880,881,881,881,881,880,880,880,880,880,880,880,880,879,880,879,879,879,879,880,880,880,880,879,880,880,879,879,880,879,879,879,878,878,878,878,878,878,878,878,880,879,880,879,880,880,880,879,879,879,880,880,880,880,880,880,881,881,881,881,881,881,881,881,881,881,883,881,881,882,878,876,874,874,873,872,872,872,871,871,871,871,870,870,870,870,869,869,869,869,869,870,871,872,872,873,873,874,874,875,876,878,879,880,881,881,881,881,2047,2047,2047,2047,2047,2047,2047,2047,2047,2047,2047,2047,2047,2047,2047,2047,2047,2047,2047,2047,1045,1045,1045,1045,1045,1045,1045,1045,1045,1045,2047,2047,2047,2047,2047,1045,1044,1043,2047,2047,2047,2047,2047,2047,2047,1034,1034,1035,1035,1034,1034,1034,2047,2047,2047,2047,2047,2047,2047,2047,2047,2047,1027,1027,1028,1028,1028,1028,1029,1029,1029,1029,1029,1029,1029,1029,1029,1029,1029,1029,1028,1029,1029,1028,1028,1028,1028,1028,2047,2047,2047,2047,2047,2047,2047,2047,2047,2047,2047,2047,2047,2047,2047,2047,2047,2047,2047,2047,2047,2047,2047,2047,2047,2047,2047,2047,2047,2047,2047,2047,2047,2047,2047,2047,2047,2047,2047,2047,2047,2047,2047,2047,698,697,2047,2047,697,697,697,681,682,682,681,680,680,680,679,679,679,678,678,678,678,678,678,678,678,677,677,677,676,675,674,674,674,673,673,672,671,670,670,668,667,666,666,665,664,663,662,661,660,659,658,657,656,655,653,652,651,650,649,649,649,648,647,646,644,643,642,641,641,640,639,638,637,637,637,636,635,633,631,629,628,628,628,628,628,628,627,627,626,626,625,625,624,623,622,622,621,620,618,618,617,616,616,615,614,614,614,613,613,612,611,610,609,608,607,606,606,606,605,604,604,603,602,601,600,600,600,598,597,595,594,593,592,591,592,592,590,589,588,587,586,585,585,585,584,582,581,581,580,579,578,578,577,576,575,575,574,573,573,573,2047,2047,2047,2047,2047,2047,2047,2047
1041,1041,1041,1041,1041,1041,1040,1040,1040,1040,1041,1041,1041,1041,1041,1042,1042,1043,1042,1043,1042,1043,1042,1042,1042,1042,1042,1042,1042,1042,1043,1044,1044,1043,1043,1042,1043,1043,1043,1043,1042,1043,1044,1044,1044,1044,1045,1044,1045,1045,1045,1045,1045,1045,1044,1044,1044,1044,1044,1044,1044,1044,1044,1044,1045,1045,1045,1045,1045,1046,1046,1045,1045,1045,1045,1044,1044,1044,1044,1044,1044,1045,1045,1045,1045,1046,1046,1046,1046,1046,1046,1046,1046,1046,1046,1046,1046,1045,1045,1045,1046,1046,1046,1046,1047,1045,1046,1046,1046,1046,1046,1046,1046,1046,1046,1045,1045,1046,1046,1046,1047,1047,1047,1047,1047,1048,1048,1048,1048,1048,1048,1048,1047,1047,1048,1048,1047,1047,1047,1047,1047,1047,1048,1048,1048,1049,1049,1049,1049,1049,1049,1049,1049,1049,1049,1049,1049,1049,1049,1049,1049,1049,1049,1049,1049,1049,1048,1049,1049,1049,1049,1049,1049,1049,1049,1049,1049,1049,1049,1049,1049,1049,1049,1050,1050,2047,2047,2047,2047,2047,2047,2047,2047,2047,2047,2047,2047,2047,2047,2047,911,912,912,912,912,912,912,912,913,913,889,889,888,888,887,886,885,884,884,884,883,882,882,882,882,881,881,881,881,881,881,880,880,880,880,880,880,880,880,880,880,880,880,880,879,879,879,879,879,879,878,878,878,878,878,878,878,878,878,878,878,878,878,878,878,878,878,878,878,878,878,878,878,878,879,878,879,879,880,879,879,880,880,880,880,880,881,881,881,881,881,881,881,881,881,881,881,881,881,880,879,876,873,873,873,872,872,871,871,871,870,870,870,870,869,869,869,869,869,869,869,869,869,871,871,872,873,873,874,875,876,877,878,880,880,880,881,881,881,881,1049,1048,1049,1049,1049,1049,2047,2047,2047,2047,2047,2047,2047,2047,2047,2047,2047,2047,2047,2047,2047,2047,2047,1045,1045,1045,1045,1045,1045,1045,1045,1045,1045,1045,1045,1044,1045,1045,1044,2047,2047,2047,2047,1035,1035,1034,1034,1034,1034,1034,1034,1034,1034,1034,1034,1034,1034,2047,1032,2047,1031,1031,1031,1030,1030,1029,1029,1029,1029,1029,1029,1029,1029,1029,1029,1029,1029,1029,1029,1029,1029,1029,1029,1028,1028,2047,2047,2047,2047,2047,2047,2047,2047,2047,2047,2047,2047,2047,2047,2047,2047,2047,2047,2047,2047,2047,2047,2047,2047,2047,2047,2047,2047,2047,2047,2047,2047,2047,2047,2047,2047,2047,2047,2047,2047,2047,2047,2047,2047,2047,2047,2047,2047,2047,682,682,682,683,682,682,681,681,680,680,680,680,679,679,679,679,678,678,678,678,677,677,677,677,676,676,674,674,673,673,672,672,671,670,669,668,668,667,666,665,663,662,661,660,660,658,657,656,655,654,653,652,651,649,648,647,646,646,645,644,643,642,642,641,640,638,638,637,636,636,635,634,634,633,633,631,629,627,626,626,626,626,626,625,625,624,624,623,622,622,621,620,620,619,618,616,615,614,613,613,612,611,610,610,609,609,609,608,607,606,605,603,602,602,601,600,600,599,598,598,597,596,596,594,593,592,591,590,589,589,588,588,587,587,586,585,583,582,582,582,581,581,580,579,578,577,576,576,575,574,574,573,572,572,571,570,570,569,2047,2047,2047,2047,2047,2047,2047,2047
1039,1040,1039,1040,1040,1041,1039,1040,1041,1042,1042,1042,1042,1042,1042,1042,1041,1041,1041,1041,1041,1042,1042,1042,1043,1043,1043,1042,1043,1042,1043,1043,1042,1042,1042,1041,1042,1042,1043,1043,1043,1044,1044,1044,1044,1044,1045,1045,1045,1045,1045,1045,1045,1045,1045,1045,1044,1044,1044,1044,1044,1043,1043,1043,1044,1044,1044,1045,1045,1045,1045,1045,1045,1045,1045,1045,1044,1044,1044,1044,1044,1045,1045,1045,1045,1046,1046,1047,1046,1046,1046,1046,1046,1045,1045,1045,1045,1045,1045,1045,1047,1047,1047,1047,1048,1048,1048,1048,1048,1048,1048,1048,1048,1047,1047,1047,1047,1047,1046,1046,1046,1047,1046,1047,1047,1048,1048,1048,1048,1048,1048,1048,1048,1048,1047,1047,1047,1047,1047,1047,1047,1048,1048,1048,1048,1049,1049,1049,1049,1049,1049,1049,1048,1049,1049,1049,1049,1049,1049,1049,1049,1049,1049,1049,1049,1049,1048,1049,1049,1049,1049,1049,1049,1049,1049,1049,1049,1049,1049,1049,1049,1049,1050,1050,1050,2047,2047,2047,2047,2047,2047,2047,2047,2047,2047,2047,2047,2047,2047,2047,911,912,913,913,913,912,913,913,913,888,888,888,888,887,887,885,885,884,884,884,883,882,882,882,882,881,881,881,881,881,880,880,880,880,880,880,880,880,880,880,880,880,880,880,880,880,879,879,879,878,878,879,878,878,878,878,878,878,878,878,878,878,878,878,878,878,878,878,878,878,877,878,878,878,879,878,879,879,879,879,879,879,880,880,880,880,880,881,881,881,881,880,881,881,881,881,881,881,880,880,878,876,873,873,873,872,872,871,871,871,871,870,870,870,869,869,869,869,869,869,869,869,869,870,871,872,873,873,874,875,875,877,877,880,880,880,881,881,1049,1049,1048,1048,1048,1048,1048,1048,2047,2047,2047,2047,2047,2047,2047,2047,2047,2047,2047,2047,2047,2047,2047,2047,1045,1045,1045,1045,1045,1045,1045,1045,1045,1045,1045,1045,1044,1044,1045,2047,2047,2047,2047,2047,2047,1035,1034,1034,1034,1034,1034,1034,1034,1034,1034,1034,1034,1033,1033,1032,1032,1031,1030,1030,1031,1030,1030,1029,1029,1029,1029,1029,1029,1029,1029,1029,1029,1029,1029,1029,1029,1029,1029,1029,1029,1028,1028,2047,2047,2047,2047,2047,2047,2047,2047,2047,2047,2047,2047,2047,2047,2047,2047,2047,2047,2047,2047,2047,2047,2047,2047,2047,2047,2047,2047,2047,2047,2047,2047,2047,2047,2047,2047,2047,2047,2047,2047,2047,2047,2047,2047,2047,698,697,698,698,698,682,682,682,682,681,681,681,680,679,679,679,678,679,678,678,678,678,677,677,677,677,677,677,676,675,674,674,673,673,672,672,670,670,669,668,667,666,666,665,663,662,661,660,660,659,657,657,655,654,653,652,651,649,648,647,646,646,645,644,644,642,642,641,640,639,638,637,636,635,634,634,634,634,633,633,626,626,626,626,626,626,625,625,624,624,623,622,622,621,621,619,618,618,618,615,614,614,613,612,611,611,610,610,609,609,608,608,607,606,605,603,602,601,601,600,599,598,598,597,597,595,595,593,593,592,591,589,588,588,588,587,587,587,586,585,583,582,582,581,581,581,580,579,578,577,576,576,575,574,574,573,572,571,571,570,570,569,2047,2047,2047,2047,2047,2047,2047,2047
1039,1039,1039,1039,1039,1038,1038,1040,1040,1041,1042,1042,1042,1042,1042,1042,1041,1041,1041,1041,1041,1041,1041,1042,1042,1043,1043,1043,1043,1043,1043,1043,1043,1042,1042,1041,1042,1042,1042,1043,1043,1044,1044,1044,1044,1044,1045,1045,1045,1045,1045,1045,1045,1045,1045,1045,1044,1044,1044,1044,1044,1044,1044,1044,1044,1044,1044,1045,1045,1045,1045,1045,1045,1045,1045,1045,1045,1044,1044,1044,1044,1045,1045,1045,1046,1046,1047,1047,1046,1046,1047,1046,1046,1045,1045,1045,1045,1045,1045,1045,1046,1047,1047,1047,1048,1047,1048,1047,1048,1047,1048,1048,1048,1047,1047,1047,1047,1047,1046,1046,1046,1047,1047,1047,1048,1048,1048,1048,1048,1048,1048,1048,1048,1048,1047,1047,1047,1047,1047,1047,1047,1048,1047,1048,1048,1049,1049,1049,1048,1048,1049,1048,1048,1049,1049,1049,1049,1049,1049,1049,1049,1049,1048,1049,1049,1049,1048,1048,1049,1048,1049,1049,1049,1049,1049,1049,1049,1049,1049,1049,1049,1049,1050,1050,1050,2047,2047,2047,2047,2047,2047,2047,2047,2047,2047,2047,2047,2047,2047,2047,2047,912,913,913,912,913,913,913,913,889,889,888,888,887,887,885,885,884,884,884,883,883,882,882,882,881,881,881,881,880,880,880,880,880,880,880,880,880,880,880,880,880,880,880,879,880,879,879,879,879,878,879,880,878,878,878,878,878,878,877,878,878,878,878,878,878,878,879,878,878,878,878,878,878,879,878,879,879,879,878,879,879,880,880,880,880,880,881,881,881,881,880,881,881,881,881,881,881,880,880,877,876,873,873,873,872,872,871,871,871,871,870,870,870,869,869,869,869,869,869,869,869,869,870,871,872,873,873,874,875,876,877,878,880,880,880,880,881,1049,1049,1048,1048,1048,1048,1048,1048,1047,2047,2047,2047,2047,2047,2047,2047,2047,2047,2047,2047,2047,2047,2047,2047,2047,1044,1045,1045,1045,1045,1045,1045,1045,1045,1044,1044,1044,1044,1044,2047,2047,2047,2047,2047,2047,1035,1034,1034,1034,1034,1034,1034,1034,1034,1034,1034,1034,1034,1033,1032,1032,1030,1030,1030,1031,1030,1030,1029,1030,1030,1030,1030,1029,1029,1029,1029,1029,1029,1029,1029,1029,1029,1029,1029,1029,1028,2047,2047,2047,2047,2047,2047,2047,2047,2047,2047,2047,2047,2047,2047,2047,2047,2047,2047,2047,2047,2047,2047,2047,2047,2047,2047,2047,2047,2047,2047,2047,2047,2047,2047,2047,2047,2047,2047,2047,2047,2047,2047,2047,2047,2047,698,698,698,698,698,698,682,682,681,681,681,681,680,680,679,679,678,678,678,678,678,677,677,677,677,676,677,677,676,675,674,674,673,673,672,671,671,670,669,668,667,667,666,666,665,663,662,661,660,660,659,657,656,655,654,653,652,651,649,648,647,646,646,645,645,644,643,642,641,640,639,638,637,636,635,634,634,633,633,633,632,629,626,625,625,625,625,625,624,624,623,622,622,622,621,620,619,618,617,616,615,614,614,613,612,611,610,610,609,609,608,607,607,606,605,605,603,602,601,600,599,599,598,597,597,596,595,594,593,592,591,590,589,588,588,588,587,587,586,586,585,583,582,582,581,581,580,579,578,578,577,576,576,575,574,573,573,571,571,570,570,570,569,2047,2047,2047,2047,2047,2047,2047,2047
1039,1039,1039,1039,1039,1038,1039,1040,1041,1041,1041,1041,1041,1041,1041,1041,1041,1041,1041,1041,1041,1041,1041,1041,1042,1042,1043,1043,1043,1043,1043,1043,1043,1042,1042,1042,1042,1042,1042,1043,1043,1044,1044,1044,1044,1044,1045,1045,1045,1045,1045,1045,1045,1045,1045,1045,1044,1044,1044,1044,1044,1044,1043,1044,1044,1044,1044,1045,1045,1045,1045,1045,1045,1045,1045,1045,1044,1044,1044,1044,1044,1045,1045,1045,1046,1046,1047,1047,1047,1047,1046,1046,1046,1045,1045,1045,1045,1045,1045,1045,1045,1046,1047,1047,1047,1047,1047,1047,1047,1047,1047,1048,1048,1047,1047,1047,1046,1046,1046,1046,1046,1047,1047,1047,1047,1048,1048,1048,1048,1048,1048,1048,1048,1048,1048,1047,1047,1048,1048,1048,1048,1048,1048,1048,1048,1048,1048,1048,1048,1048,1049,1048,1048,1049,1049,1049,1049,1049,1049,1049,1049,1048,1048,1049,1049,1049,1048,1048,1048,1048,1049,1049,1049,1049,1049,1049,1049,1049,1049,1049,1049,1049,1050,1050,1050,2047,2047,2047,2047,2047,2047,2047,2047,2047,2047,2047,2047,2047,2047,2047,912,912,913,913,913,913,913,913,913,889,889,888,888,887,886,885,885,884,884,884,883,882,882,882,882,881,881,881,881,880,880,880,880,880,880,880,880,880,880,880,880,880,880,880,879,879,879,879,879,879,879,879,879,878,878,878,878,878,878,877,877,877,878,878,878,878,878,878,878,878,878,878,878,878,878,878,878,879,879,878,879,879,879,880,880,880,880,880,880,881,881,880,881,881,881,881,881,880,880,879,877,876,873,873,873,872,872,871,871,871,871,870,870,870,869,869,869,869,869,869,869,869,869,870,872,872,873,873,874,875,875,877,877,880,880,880,880,881,880,1048,1048,1048,1048,1048,1047,1047,1047,1046,2047,2047,2047,2047,2047,1038,2047,1038,1038,1036,1037,1038,1038,2047,1042,1043,1044,1044,1044,1044,1044,1045,1045,1044,1044,1044,1044,1044,1044,2047,2047,2047,2047,2047,2047,1035,1035,1034,1034,1034,1034,1034,1034,1034,1034,1034,1034,1034,1034,1033,1033,1030,1030,1030,1031,1030,2047,2047,2047,2047,2047,2047,2047,2047,2047,2047,2047,1029,1028,1028,1029,1029,1029,1029,1029,2047,2047,2047,2047,2047,2047,2047,2047,2047,2047,2047,2047,2047,2047,2047,2047,2047,2047,2047,2047,2047,2047,2047,2047,2047,2047,2047,2047,2047,2047,2047,2047,2047,2047,2047,2047,2047,2047,2047,2047,2047,2047,2047,2047,2047,698,698,698,698,698,698,698,681,681,681,681,681,681,680,680,679,679,678,678,678,677,677,677,677,677,677,676,676,677,676,674,674,674,673,672,672,671,670,670,669,668,667,667,666,666,665,663,662,661,660,660,659,657,656,655,654,653,652,651,650,649,647,646,646,645,645,644,643,642,641,640,639,638,637,636,635,634,633,633,633,633,632,629,626,625,625,625,625,625,624,624,623,622,622,621,620,620,619,618,617,616,615,614,613,613,612,611,610,610,609,608,608,607,606,606,605,604,603,602,601,599,599,599,598,597,597,596,595,594,592,592,591,590,589,588,588,587,587,586,586,585,584,583,582,582,581,581,580,579,578,578,577,576,576,575,574,573,572,571,571,570,570,570,569,2047,2047,2047,2047,2047,2047,2047,2047
1039,1039,1038,1038,1038,1038,1039,1040,1041,1041,1041,1041,1041,1041,1041,1041,1041,1041,1041,1041,1041,1041,1041,1041,1042,1042,1043,1043,1042,1042,1043,1043,1042,1042,1042,1042,1042,1043,1043,1043,1043,1044,1044,1044,1044,1044,1045,1045,1045,1045,1045,1044,1045,1045,1045,1044,1044,1044,1043,1044,1043,1043,1043,1044,1044,1045,1045,1045,1045,1045,1045,1045,1045,1044,1044,1045,1044,1044,1044,1044,1045,1045,1045,1045,1045,1045,1046,1047,1046,1046,1046,1046,1045,1045,1045,1045,1045,1045,1045,1045,1045,1046,1046,1046,1047,1047,1047,1047,1047,1048,1048,1048,1048,1047,1047,1047,1046,1046,1046,1046,1046,1047,1047,1048,1048,1048,1048,1048,1048,1048,1048,1048,1048,1048,1048,1048,1048,1048,1048,1048,1048,1048,1048,1048,1048,1049,1049,1048,1048,1048,1048,1048,1048,1049,1049,1049,1049,1049,1049,1049,1049,1048,1048,1049,1049,1049,1048,1048,1049,1049,1049,1049,1049,1049,1049,1049,1048,1049,1049,1049,1049,1049,1049,1049,1050,2047,2047,2047,2047,2047,2047,2047,2047,2047,2047,2047,2047,2047,2047,2047,2047,913,913,913,913,913,913,913,913,889,889,888,888,888,886,885,885,884,884,884,883,882,882,882,882,881,881,881,881,881,881,880,880,880,880,880,880,880,880,880,880,880,880,880,879,879,879,879,879,880,879,879,879,879,878,878,878,878,877,877,877,877,877,877,878,878,878,878,878,878,878,878,878,878,878,877,878,879,879,878,879,879,880,880,879,879,879,880,880,880,880,880,881,881,881,881,881,880,880,879,877,876,873,873,873,872,872,872,872,871,871,870,870,870,869,869,869,869,869,869,869,869,869,870,871,872,873,873,874,875,875,877,877,880,880,880,880,881,880,1048,1048,1048,1048,1048,1047,1047,1046,1046,2047,2047,2047,2047,2047,1037,1037,1038,1038,1037,1038,1038,1038,1041,1041,1043,1043,1044,1044,1044,1044,1045,1045,1045,2047,2047,2047,2047,1044,2047,2047,2047,2047,2047,2047,2047,1036,1035,1034,1034,1034,1034,1034,1034,1034,1034,1034,1034,1034,1033,2047,2047,1030,2047,2047,2047,2047,2047,2047,2047,2047,2047,2047,2047,2047,2047,2047,2047,2047,2047,2047,2047,2047,2047,2047,2047,2047,2047,2047,2047,2047,2047,2047,2047,2047,2047,2047,2047,2047,2047,2047,2047,2047,2047,2047,2047,2047,2047,2047,2047,2047,2047,2047,2047,2047,2047,2047,2047,2047,2047,2047,2047,2047,2047,2047,2047,2047,2047,2047,2047,698,698,698,698,698,698,697,697,681,681,681,681,681,680,680,679,679,678,678,677,677,677,677,677,676,676,676,676,677,675,674,674,673,673,672,671,670,670,670,669,668,667,667,666,666,665,663,662,661,660,660,659,658,657,655,654,653,653,652,650,649,648,646,646,646,645,644,643,642,641,640,638,637,637,636,635,634,633,633,633,633,632,628,626,626,626,625,625,625,624,623,622,621,621,621,619,619,618,617,616,615,614,614,613,612,611,610,610,609,609,608,607,606,606,606,605,604,603,601,600,599,598,598,598,597,596,596,594,594,592,591,591,590,589,588,588,587,587,586,586,585,584,583,582,582,581,581,580,579,578,578,577,576,575,574,574,573,572,571,571,570,570,570,570,2047,2047,2047,2047,2047,2047,2047,2047
1038,1038,1038,1038,1039,1039,1040,1040,1040,1041,1041,1041,1041,1041,1041,1041,1041,1041,1041,1041,1041,1041,1041,1041,1041,1041,1042,1042,1042,1042,1042,1042,1043,1042,1042,1042,1043,1043,1043,1043,1043,1044,1044,1044,1044,1045,1045,1045,1045,1045,1045,1044,1044,1044,1044,1044,1044,1044,1043,1044,1044,1044,1044,1044,1045,1045,1045,1045,1045,1045,1045,1045,1045,1044,1044,1045,1044,1044,1044,1045,1045,1045,1045,1045,1045,1045,1046,1047,1046,1046,1046,1045,1045,1045,1044,1044,1044,1045,1045,1045,1045,1046,1046,1046,1046,1046,1046,1047,1047,1047,1047,1048,1048,1047,1047,1047,1046,1046,1048,1048,1048,1048,1048,1048,1048,1048,1048,1048,1048,1048,1048,1048,1048,1048,1048,1048,1048,1048,1048,1048,1048,1049,1048,1049,1049,1049,1049,1049,1049,1048,1048,1048,1048,1048,1049,1048,1049,1049,1049,1049,1049,1048,1048,1049,1048,1049,1049,1048,1049,1049,1049,1049,1049,1048,1049,1049,1048,1048,1049,1049,1049,1049,1049,1049,2047,2047,2047,2047,2047,2047,2047,2047,2047,2047,2047,2047,2047,2047,2047,2047,2047,913,913,913,913,913,913,913,913,889,889,888,887,887,886,885,885,884,884,883,883,882,882,882,881,881,881,881,880,880,880,880,880,880,880,880,880,880,880,880,880,880,880,880,880,879,879,879,879,880,879,879,879,879,880,878,878,877,877,877,877,877,877,877,877,877,877,878,877,877,877,877,877,877,877,877,878,878,879,879,879,879,879,880,879,879,879,879,879,880,880,880,880,881,880,881,881,880,880,879,878,876,873,873,873,872,872,871,871,871,871,870,870,870,869,869,869,869,869,869,869,869,869,870,871,872,873,873,874,874,875,877,877,880,880,880,880,880,880,880,1048,1048,1047,1047,1047,1047,1046,2047,2047,2047,2047,2047,1037,1037,1037,1038,1038,1037,1038,1038,1038,1040,1041,1042,1043,1044,1043,1044,1044,1045,1045,2047,2047,2047,2047,2047,2047,2047,2047,2047,2047,2047,2047,2047,1035,1035,1034,1034,1034,1034,1034,1034,1034,1034,1034,1034,1034,1034,2047,2047,2047,2047,2047,2047,2047,2047,2047,2047,2047,2047,2047,2047,2047,2047,2047,2047,2047,2047,2047,2047,2047,2047,2047,2047,2047,2047,2047,2047,2047,2047,2047,2047,2047,2047,2047,2047,2047,2047,2047,2047,2047,2047,2047,2047,2047,2047,2047,2047,2047,2047,2047,2047,2047,2047,2047,2047,2047,2047,2047,2047,2047,2047,2047,2047,2047,2047,700,699,698,698,697,697,697,697,695,695,681,681,681,681,680,680,679,678,678,678,677,677,677,677,676,676,676,676,677,675,675,674,674,674,673,673,672,671,670,670,669,669,668,667,667,666,666,665,664,663,661,660,660,658,657,656,655,654,653,653,652,651,649,648,647,646,646,645,644,643,642,641,640,639,638,637,636,635,634,634,633,633,633,631,628,626,626,625,625,625,625,624,623,622,621,621,620,619,618,617,616,615,615,614,613,613,612,611,610,610,609,608,608,607,606,606,605,604,604,602,601,600,599,598,598,598,597,596,596,594,593,592,591,591,590,589,589,588,587,587,586,586,585,584,584,582,582,581,581,580,579,578,578,577,576,575,574,574,573,572,571,571,570,570,570,570,2047,2047,2047,2047,2047,2047,2047,2047
1040,1039,1038,1039,1039,1040,1040,1040,1040,1041,1041,1041,1041,1041,1041,1041,1041,1041,1041,1041,1041,1041,1041,1041,1041,1041,1041,1041,1041,1041,1042,1043,1043,1043,1042,1043,1043,1043,1044,1044,1044,1044,1044,1044,1044,1045,1045,1045,1045,1045,1045,1044,1045,1044,1044,1044,1044,1044,1043,1043,1043,1043,1044,1044,1044,1045,1045,1045,1045,1045,1045,1045,1045,1044,1044,1044,1044,1044,1044,1044,1044,1045,1045,1045,1045,1045,1047,1047,1047,1046,1046,1045,1045,1045,1045,1045,1045,1045,1045,1045,1045,1046,1046,1046,1046,1046,1046,1046,1048,1047,1047,1047,1047,1048,1048,1047,1046,1046,1048,1048,1048,1048,1048,1048,1048,1048,1048,1048,1048,1048,1048,1048,1048,1048,1048,1048,1048,1048,1048,1048,1048,1049,1049,1049,1049,1049,1049,1049,1049,1048,1048,1048,1048,1048,1048,1048,1049,1049,1049,1049,1049,1049,1048,1049,1049,1048,1048,1048,1048,1048,1048,1048,1048,1048,1049,1048,1048,1049,1049,1049,1049,1049,1049,1049,2047,2047,2047,2047,2047,2047,2047,2047,2047,2047,2047,2047,2047,2047,2047,2047,2047,913,913,913,913,913,913,913,913,913,889,888,888,887,886,885,884,884,884,884,883,882,882,882,881,881,881,880,880,880,880,880,880,880,880,880,880,880,880,880,880,880,880,880,879,879,879,879,879,879,879,879,879,878,878,878,878,877,877,877,877,877,877,877,877,877,877,878,877,877,877,877,877,877,877,877,877,878,877,877,877,878,879,879,879,878,878,879,879,879,880,879,880,880,880,880,880,880,880,879,878,876,874,873,873,872,872,871,871,870,870,869,869,869,869,869,868,869,869,869,869,869,869,871,872,873,873,874,874,875,876,877,878,880,880,880,881,880,880,2047,2047,2047,2047,2047,2047,2047,2047,2047,2047,2047,2047,2047,2047,2047,1038,1038,1037,1037,1038,1038,1038,1041,1042,1044,1043,1043,1044,1044,1044,2047,2047,2047,2047,2047,2047,2047,2047,2047,2047,2047,2047,2047,2047,2047,1006,1006,1006,1034,1035,1034,1034,1034,1034,1034,1034,1034,1034,1034,2047,2047,2047,2047,2047,2047,2047,2047,2047,2047,2047,2047,2047,2047,2047,2047,2047,2047,2047,2047,2047,2047,2047,2047,2047,2047,2047,2047,2047,2047,2047,2047,2047,2047,2047,2047,2047,2047,2047,2047,2047,2047,2047,2047,2047,2047,2047,2047,2047,2047,2047,2047,2047,2047,2047,2047,2047,2047,2047,2047,2047,2047,2047,2047,2047,2047,2047,2047,699,697,697,697,696,696,696,696,2047,679,679,679,678,678,677,677,677,677,677,676,675,675,675,675,674,674,674,674,673,673,672,673,672,670,670,669,669,668,668,667,666,665,664,663,662,662,661,660,659,658,656,655,654,654,653,652,652,650,649,647,647,646,645,644,643,641,641,639,638,638,636,636,635,634,633,631,631,630,629,628,626,625,623,622,621,621,621,621,621,620,619,618,618,617,616,616,615,614,613,612,611,610,610,609,608,607,606,606,605,605,604,603,602,602,601,601,600,599,598,597,596,595,594,594,593,593,592,592,591,589,587,586,585,585,585,585,584,583,582,581,581,580,579,578,577,577,577,576,575,574,574,573,573,572,571,570,569,569,568,567,566,565,565,564,563,564,2047,2047,2047,2047,2047,2047,2047,2047
1040,1040,1040,1040,1040,1041,1041,1040,1040,1040,1040,1040,1040,1041,1040,1043,1043,1042,1041,1041,1041,1041,1041,1041,1041,1042,1042,1042,1042,1043,1043,1043,1043,1043,1043,1043,1044,1044,1044,1044,1044,1044,1044,1044,1044,1044,1044,1044,1044,1044,1045,1045,1045,1044,1044,1044,1044,1044,1044,1044,1044,1044,1044,1045,1045,1045,1045,1046,1045,1045,1045,1045,1045,1045,1044,1044,1044,1044,1044,1044,1044,1045,1045,1045,1045,1045,1046,1046,1046,1046,1046,1046,1047,1047,1046,1046,1047,1046,1046,1047,1047,1047,1047,1047,1046,1046,1046,1047,1047,1047,1047,1047,1047,1048,1047,1047,1046,1046,1046,1048,1048,1048,1048,1048,1048,1048,1048,1048,1046,1047,1047,1047,1048,1048,1048,1048,1048,1048,1048,1048,1048,1048,1048,1049,1049,1048,1048,1048,1049,1049,1049,1049,1048,1048,1049,1048,1048,1048,1048,1048,1048,1048,1048,1049,1049,1049,1049,1048,1049,1049,1049,1048,1048,1048,1048,1048,1048,1048,1048,1048,1048,1048,1048,1048,2047,2047,2047,2047,2047,2047,2047,2047,2047,2047,2047,2047,2047,2047,2047,2047,913,913,913,913,913,913,912,912,912,912,888,888,887,887,886,885,884,884,884,884,882,882,881,881,881,880,880,880,880,880,880,880,880,880,880,880,880,880,880,880,880,880,880,879,879,879,878,878,879,879,878,878,878,878,878,878,878,878,878,877,878,878,877,878,877,877,877,877,877,877,877,877,877,877,877,877,877,877,877,878,877,878,878,878,879,878,878,878,879,879,879,879,880,880,880,880,880,880,879,878,876,874,873,872,872,871,871,871,871,870,870,869,869,869,869,869,869,869,869,869,869,869,869,870,871,872,873,873,874,875,877,878,878,879,880,880,880,880,2047,2047,2047,2047,2047,2047,2047,2047,2047,2047,2047,2047,2047,2047,2047,1037,1037,1037,1037,1037,1037,1037,1038,1038,1042,1042,2047,1044,1044,1043,2047,2047,2047,2047,2047,2047,2047,2047,2047,2047,2047,2047,2047,2047,1006,1006,1006,1006,1006,1006,1035,1035,1035,1034,1034,1034,1034,1034,1034,1033,1033,2047,2047,2047,2047,2047,2047,2047,2047,2047,2047,2047,2047,2047,2047,2047,2047,2047,2047,2047,2047,2047,2047,2047,2047,2047,2047,2047,2047,2047,2047,2047,2047,2047,2047,2047,2047,2047,2047,2047,2047,2047,2047,2047,2047,2047,2047,2047,2047,2047,2047,2047,2047,2047,2047,2047,2047,2047,2047,702,701,700,702,701,2047,2047,2047,698,697,697,697,696,695,695,695,695,2047,679,679,678,678,678,677,677,677,676,676,676,675,675,674,674,674,674,674,674,673,673,672,672,671,670,670,669,669,668,668,667,666,665,664,663,662,662,661,660,659,658,657,655,654,654,653,652,652,650,649,648,647,646,645,644,643,642,641,639,638,638,637,636,635,634,633,631,631,630,629,629,627,625,623,622,621,621,621,621,620,619,618,618,617,617,616,615,615,614,612,612,611,610,609,609,607,607,606,606,605,604,603,603,602,601,601,600,600,599,598,597,595,594,593,593,593,593,592,592,591,590,588,586,585,585,585,585,584,583,582,581,581,580,579,578,577,577,577,576,575,575,574,574,573,572,571,570,569,569,568,567,566,565,565,565,564,564,2047,2047,2047,2047,2047,2047,2047,2047
1040,1040,1040,1040,1041,1041,1041,1040,1040,1041,1041,1040,1040,1041,1040,1042,1042,1042,1041,1041,1041,1041,1042,1042,1041,1042,1042,1042,1043,1043,1043,1043,1043,1044,1044,1044,1044,1044,1044,1044,1044,1044,1044,1044,1044,1044,1044,1045,1045,1045,1046,1045,1045,1045,1044,1044,1044,1044,1044,1044,1044,1044,1044,1045,1045,1045,1045,1045,1045,1045,1045,1045,1045,1045,1044,1045,1044,1044,1044,1044,1045,1045,1045,1045,1045,1045,1046,1046,1046,1046,1046,1046,1047,1047,1046,1046,1047,1047,1047,1047,1046,1046,1047,1047,1046,1046,1046,1047,1047,1047,1047,1047,1047,1047,1047,1047,1046,1046,1048,1048,1048,1048,1048,1048,1048,1048,1048,1047,1048,1048,1047,1047,1048,1048,1048,1048,1048,1048,1048,1048,1048,1048,1048,1048,1048,1048,1048,1048,1048,1048,1048,1048,1048,1048,1048,1048,1048,1048,1048,1048,1048,1048,1048,1049,1049,1049,1049,1048,1049,1049,1049,1048,1048,1048,1048,1048,1048,1048,1048,1048,1048,1048,1048,1048,2047,2047,2047,2047,2047,2047,2047,2047,2047,2047,2047,2047,2047,2047,2047,2047,912,912,913,913,913,912,912,912,912,887,887,887,886,886,885,885,884,884,884,883,882,882,881,881,881,880,880,880,880,879,879,880,880,880,880,880,880,880,880,880,880,880,880,879,879,879,878,878,878,879,878,878,878,878,878,877,877,877,877,877,878,878,877,877,877,877,877,877,877,877,877,877,877,877,877,877,877,877,877,877,877,877,878,878,878,878,878,878,878,878,878,879,879,880,880,880,880,879,878,878,876,874,873,872,872,871,871,871,870,870,869,869,869,869,869,869,869,869,869,869,869,869,869,870,871,872,873,873,874,875,877,877,878,879,880,880,881,880,2047,2047,2047,2047,2047,2047,2047,2047,2047,2047,2047,2047,2047,2047,2047,1038,1038,1037,1036,1036,1037,1037,1037,2047,2047,2047,2047,2047,2047,2047,2047,2047,2047,2047,2047,2047,2047,2047,2047,2047,2047,2047,2047,1007,1006,1006,1006,1006,1006,1006,1006,1006,1035,1034,1034,1006,1005,1005,1034,1005,2047,2047,2047,2047,2047,2047,2047,2047,2047,2047,2047,2047,2047,2047,2047,2047,2047,2047,2047,2047,2047,2047,2047,2047,2047,2047,2047,2047,2047,2047,2047,2047,2047,2047,2047,2047,2047,2047,2047,2047,2047,2047,2047,2047,2047,2047,2047,2047,2047,2047,2047,2047,2047,2047,2047,2047,2047,2047,2047,702,701,701,701,701,698,700,698,697,697,697,696,694,695,695,695,695,2047,679,679,678,678,677,677,677,676,676,675,675,674,674,674,674,673,674,674,673,673,672,671,671,671,670,670,669,669,668,667,667,666,665,664,663,662,662,661,660,659,658,657,656,655,654,653,653,652,650,649,648,647,646,645,645,643,642,641,640,639,638,637,636,635,634,633,631,631,630,630,628,627,625,624,622,622,621,621,620,620,619,618,617,617,616,616,615,614,613,612,612,610,610,609,609,608,607,606,605,605,604,603,602,602,601,601,600,599,598,598,596,595,594,593,593,593,593,592,591,591,589,587,586,585,585,585,585,584,583,582,581,581,580,579,578,577,577,577,576,575,575,574,574,573,572,570,570,569,569,569,568,566,565,565,565,564,564,2047,2047,2047,2047,2047,2047,2047,2047
1040,1041,1040,1040,1041,1041,1041,1040,1040,1040,1040,1040,1040,1041,1040,1041,1042,1042,1041,1041,1042,1042,1042,1042,1042,1042,1042,1042,1043,1043,1043,1043,1043,1043,1044,1043,1043,1044,1044,1044,1044,1044,1044,1044,1044,1044,1044,1044,1045,1045,1045,1044,1045,1045,1045,1045,1044,1044,1044,1044,1044,1044,1044,1045,1045,1044,1045,1045,1045,1045,1045,1045,1045,1045,1044,1044,1044,1044,1044,1044,1045,1045,1045,1045,1045,1045,1045,1046,1045,1045,1045,1045,1046,1046,1046,1046,1046,1046,1046,1046,1046,1046,1047,1047,1047,1046,1046,1047,1047,1047,1047,1047,1047,1048,1048,1047,1047,1047,1047,1048,1048,1048,1048,1048,1048,1047,1047,1047,1048,1048,1048,1048,1048,1048,1048,1048,1048,1048,1048,1048,1048,1048,1048,1048,1048,1048,1048,1048,1048,1049,1049,1048,1048,1048,1048,1048,1048,1048,1048,1048,1048,1048,1048,1049,1049,1048,1048,1048,1048,1048,1048,1048,1048,1048,1048,1048,1048,1048,1048,1048,1048,1048,1048,2047,2047,2047,2047,2047,2047,2047,2047,2047,2047,2047,2047,2047,2047,2047,2047,913,912,912,912,912,912,912,912,912,912,887,886,887,886,885,885,885,884,884,883,883,882,882,881,881,881,880,880,880,879,879,880,880,880,880,880,880,880,879,880,880,879,880,879,879,879,879,878,878,879,879,878,878,878,878,878,878,877,877,877,877,878,878,877,877,877,877,877,877,877,877,877,877,877,877,877,877,877,877,877,877,877,877,878,878,878,878,877,877,877,878,878,878,878,879,879,879,879,879,878,877,875,874,873,872,871,871,871,870,870,870,869,869,869,869,869,869,869,869,869,869,869,869,869,870,870,871,872,873,874,876,876,877,878,878,2047,2047,2047,2047,2047,2047,2047,2047,2047,2047,2047,2047,2047,2047,2047,2047,2047,2047,1038,1037,1037,1037,1036,1035,1037,1036,1037,2047,2047,2047,2047,2047,1042,1042,2047,2047,2047,2047,2047,2047,2047,2047,2047,2047,2047,1007,1007,1006,1006,1006,1006,1006,1006,1006,1006,1006,1006,1006,1006,1005,1005,1005,1005,1005,1005,2047,2047,2047,2047,2047,2047,2047,2047,2047,2047,2047,2047,2047,2047,2047,2047,2047,2047,2047,2047,2047,2047,2047,2047,2047,2047,2047,2047,2047,2047,2047,2047,2047,2047,2047,2047,2047,2047,2047,2047,2047,2047,2047,2047,2047,2047,2047,2047,2047,2047,2047,2047,2047,2047,2047,2047,2047,2047,701,701,700,701,700,699,699,698,697,697,696,695,694,694,694,694,694,679,679,679,678,678,677,677,676,676,675,675,674,674,674,674,674,673,673,673,673,673,672,671,671,671,670,670,669,669,668,667,667,666,665,664,663,662,662,661,660,659,658,657,655,655,654,653,653,652,650,649,648,647,646,645,645,644,642,641,640,639,638,637,636,635,634,633,631,630,630,630,628,627,626,624,623,622,621,621,621,620,619,618,618,617,617,616,615,615,614,613,612,611,610,610,609,608,607,606,605,605,604,603,602,602,601,600,599,599,598,597,596,595,594,594,593,592,592,592,592,591,590,588,586,585,585,585,585,584,584,582,582,581,580,579,578,577,577,577,576,575,574,574,574,573,572,571,570,569,569,568,568,566,566,566,565,565,564,2047,2047,2047,2047,2047,2047,2047,2047
