910,910,910,910,910,911,910,911,911,911,911,911,911,911,911,911,911,911,911,911,911,911,911,911,911,911,911,911,911,911,911,911,911,911,911,911,911,912,912,912,912,912,913,912,912,912,912,912,912,912,912,912,912,913,913,913,912,913,913,913,913,913,913,913,914,914,914,914,914,914,914,914,914,914,914,915,915,915,915,915,914,915,915,914,914,914,914,914,914,914,914,914,914,914,914,914,914,915,915,915,916,916,916,916,916,916,915,915,914,914,914,914,2047,2047,2047,915,915,915,916,915,915,2047,2047,2047,2047,2047,2047,2047,2047,2047,916,2047,2047,2047,2047,2047,2047,2047,2047,910,910,910,910,910,2047,2047,2047,2047,2047,2047,2047,2047,2047,2047,2047,2047,2047,912,912,913,913,913,913,914,914,914,914,913,913,913,913,913,913,913,913,913,913,913,913,914,914,914,914,914,913,913,913,914,913,914,914,914,914,913,913,913,913,913,913,913,913,914,914,914,914,914,914,914,914,914,914,914,914,914,914,915,914,915,915,915,915,914,915,914,914,914,914,914,915,915,914,914,915,915,915,915,915,915,915,915,915,915,916,916,916,916,916,917,917,917,916,916,916,916,916,917,917,917,917,917,917,917,917,917,917,916,916,917,917,917,917,917,917,917,917,917,917,917,917,917,917,918,917,917,917,917,917,917,917,917,917,917,917,917,917,917,917,918,918,918,917,918,917,918,918,917,917,918,918,918,918,918,918,918,918,918,917,918,918,918,918,917,916,916,917,916,916,916,917,917,917,917,917,917,917,917,917,917,917,917,917,917,917,917,917,917,917,917,918,918,918,918,918,918,918,917,918,918,918,917,918,918,918,918,918,918,918,919,919,919,919,919,918,918,918,918,918,918,918,918,919,919,919,919,919,919,919,919,919,919,920,920,920,920,920,920,920,920,920,920,920,920,920,920,920,920,920,921,921,921,921,921,921,921,921,921,921,921,921,921,921,921,921,921,921,921,922,922,922,922,922,922,922,923,922,922,923,923,923,923,922,922,922,922,922,922,923,923,923,923,923,923,923,923,923,923,923,923,923,923,923,923,923,923,923,923,923,923,924,924,924,924,924,924,924,924,924,924,924,924,923,923,923,923,923,923,923,924,924,924,924,924,924,924,924,923,924,924,924,924,924,924,924,924,924,924,925,925,925,925,925,925,925,925,925,925,924,925,925,925,925,925,925,925,925,925,925,925,925,925,925,925,925,925,925,925,925,925,925,925,925,925,925,925,926,926,925,925,925,925,925,925,925,925,925,925,925,926,924,924,925,925,925,925,925,925,924,925,925,924,925,925,925,925,926,926,925,926,925,925,925,925,925,925,925,925,925,925,926,926,926,925,926,926,926,926,925,925,925,925,925,926,926,926,926,926,926,926,925,925,925,924,925,925,925,925,925,926,926,926,926,926,927,927,927,927,926,927,926,926,926,926,2047,2047,2047,2047,2047,2047,2047,2047
911,910,910,911,911,911,911,911,911,911,911,911,911,911,911,911,911,911,911,911,911,911,911,911,911,911,912,912,912,912,912,911,912,911,911,911,911,912,912,912,912,913,913,913,913,912,912,912,912,912,912,913,913,913,913,913,913,914,914,914,914,914,914,914,914,914,914,914,914,914,914,914,914,914,914,915,915,915,915,915,915,915,915,914,914,914,914,914,914,914,914,914,914,914,914,914,915,915,916,916,916,917,917,916,916,916,916,916,915,915,915,915,915,916,916,916,915,916,916,916,916,916,2047,2047,2047,2047,2047,2047,2047,916,916,2047,2047,2047,2047,2047,2047,2047,2047,910,910,910,910,909,909,909,2047,2047,2047,2047,2047,2047,2047,2047,2047,2047,913,913,913,913,914,914,914,914,914,914,914,914,914,914,914,913,914,914,914,914,914,914,914,914,914,914,914,914,914,914,914,914,914,914,914,914,914,914,914,913,914,914,914,914,914,914,914,914,914,914,914,914,914,914,914,915,915,915,915,915,915,915,915,915,915,915,915,915,915,915,915,915,915,915,915,915,915,916,916,916,916,916,916,916,916,916,916,916,917,916,917,917,917,917,917,917,917,917,917,917,917,917,917,917,917,917,917,917,917,917,917,917,917,917,917,917,917,917,917,917,917,917,917,917,918,918,918,917,918,917,917,917,917,917,917,917,917,917,918,918,918,918,918,918,918,918,918,918,918,918,918,918,918,918,919,918,918,918,918,918,918,918,918,918,918,917,917,917,917,917,917,917,917,917,917,917,917,917,917,917,917,917,917,917,917,917,917,917,917,917,918,918,918,919,919,919,919,918,918,918,918,918,918,918,918,918,919,919,919,919,919,919,919,919,919,919,919,919,919,919,919,918,919,919,919,920,919,920,920,920,920,920,920,920,920,920,920,920,920,920,921,921,920,921,921,921,921,921,921,921,921,921,921,921,922,922,922,922,922,922,921,921,921,921,921,922,922,922,922,922,923,922,922,923,923,923,923,924,923,923,923,923,923,923,923,923,923,923,923,923,923,923,924,924,924,924,924,924,924,924,924,924,924,924,924,924,924,923,924,924,924,924,924,924,924,924,924,924,925,925,925,924,924,924,924,924,923,923,923,923,924,924,924,924,924,924,924,924,924,924,924,924,924,924,924,924,925,925,925,925,925,925,925,925,925,925,925,925,925,925,925,925,925,925,925,925,925,925,925,926,925,925,925,926,925,925,925,925,925,925,925,925,925,926,926,925,925,925,926,926,925,925,926,925,926,925,925,926,926,926,926,927,926,926,926,926,926,926,926,926,925,925,925,925,925,926,926,926,926,926,926,926,926,926,926,925,926,926,926,926,926,926,926,926,927,926,926,926,926,926,926,926,926,926,926,926,926,927,927,927,926,926,926,926,926,925,926,925,927,926,926,926,927,927,926,927,927,927,927,927,927,927,927,927,927,927,2047,2047,2047,2047,2047,2047,2047,2047
911,911,911,911,911,911,911,911,911,911,911,911,911,911,912,912,912,912,912,912,911,912,912,912,912,912,912,913,913,913,913,912,912,912,912,912,912,913,912,913,913,913,913,913,914,913,913,913,913,913,913,914,914,914,914,914,914,914,914,914,914,914,914,914,914,914,914,914,914,914,914,914,914,914,915,915,915,915,915,915,915,915,915,914,914,914,915,915,915,915,915,915,915,915,915,915,915,915,916,916,916,916,917,917,917,917,916,916,916,915,915,915,916,916,916,916,915,917,917,917,917,917,918,918,917,917,917,917,917,917,916,2047,2047,2047,2047,2047,2047,2047,2047,913,913,913,911,911,910,910,2047,2047,2047,2047,2047,2047,2047,2047,2047,2047,2047,913,913,913,914,914,914,914,914,914,914,914,914,914,914,914,914,914,914,914,914,915,914,915,914,914,915,914,914,914,914,914,914,914,914,915,915,914,914,914,914,914,914,914,914,914,914,915,915,914,914,915,915,915,915,915,915,916,916,916,916,916,916,916,916,915,916,916,916,915,916,916,916,916,916,916,916,917,917,916,917,917,917,917,917,916,917,917,917,917,917,917,917,917,917,917,917,917,917,917,917,917,917,917,917,917,917,917,917,917,917,917,917,918,918,918,918,918,918,918,918,918,918,918,918,918,918,917,918,917,918,917,917,917,918,918,918,918,918,918,918,918,918,918,918,918,918,918,918,918,918,919,919,919,919,919,918,919,919,918,918,919,919,919,919,918,917,917,917,917,917,917,917,917,918,917,918,918,918,918,917,918,918,918,918,918,918,918,918,918,918,919,919,919,919,919,919,919,919,919,919,919,919,919,919,919,919,919,919,919,920,920,920,920,920,920,919,919,919,919,919,919,919,920,920,920,920,920,920,920,920,920,920,920,920,921,921,921,921,921,921,921,921,921,921,921,921,921,921,921,921,921,922,922,922,922,922,922,922,922,922,922,922,922,922,922,923,923,923,923,923,923,923,923,923,923,924,924,924,924,924,924,924,924,923,923,923,923,923,923,924,924,924,924,924,924,924,924,924,924,924,924,924,924,924,924,924,924,924,924,924,924,924,924,924,925,925,925,925,925,925,925,925,925,924,924,924,924,924,924,924,924,925,925,925,925,925,925,925,924,925,925,925,925,925,925,926,926,926,926,926,926,926,926,926,926,926,925,925,926,925,926,926,926,926,926,926,926,926,926,926,926,926,926,926,926,926,926,926,926,926,926,926,927,926,926,926,926,927,926,926,926,926,926,926,926,925,926,926,927,927,928,926,927,927,927,927,927,927,926,926,926,926,926,926,926,926,926,926,927,926,927,927,927,927,926,927,926,927,926,926,926,926,927,927,926,927,927,927,927,927,927,927,927,927,927,927,927,927,927,926,927,926,926,926,926,926,926,927,927,927,927,927,927,927,927,927,927,927,927,927,927,927,927,927,927,2047,2047,2047,2047,2047,2047,2047,2047
912,912,911,911,911,912,911,912,912,912,912,912,912,912,912,912,912,912,913,912,912,913,913,913,913,913,914,914,914,914,914,913,913,912,912,913,913,913,913,913,914,914,914,914,914,914,914,914,914,914,914,914,914,914,914,914,914,914,914,914,914,915,915,914,915,915,915,914,915,914,914,914,915,915,915,915,915,915,915,915,915,915,915,914,914,914,914,915,915,915,915,915,915,915,915,916,915,915,916,916,917,917,917,917,917,917,916,916,916,916,916,916,916,917,917,917,917,917,918,918,918,918,918,918,918,917,918,918,917,917,917,2047,2047,2047,2047,2047,2047,2047,915,914,914,914,913,912,912,2047,2047,2047,2047,2047,2047,2047,2047,2047,2047,2047,915,915,914,914,915,915,915,915,915,915,915,915,915,914,914,914,915,915,914,915,915,915,915,915,915,915,915,915,915,915,915,915,915,915,915,915,915,915,915,915,915,915,915,915,915,915,915,915,915,915,915,915,915,916,916,916,916,916,916,916,916,916,916,916,916,916,916,916,916,916,916,916,917,917,917,917,917,917,917,917,917,917,917,917,917,917,917,917,917,917,917,918,917,917,917,917,917,917,917,917,917,917,917,918,918,918,917,917,917,917,917,918,918,918,918,918,919,919,918,918,918,918,918,918,918,918,918,918,918,918,918,918,918,918,918,919,918,919,919,919,919,919,919,919,919,919,919,919,919,919,919,920,920,920,920,919,919,919,919,919,919,919,920,920,920,918,919,918,918,917,918,918,918,918,918,918,918,918,918,918,918,918,918,918,918,919,919,919,919,919,919,920,920,920,919,920,920,920,920,919,919,919,920,920,920,920,920,920,920,920,920,920,920,920,920,920,920,920,920,920,920,920,920,920,921,920,920,920,921,921,921,921,921,921,921,921,921,921,921,921,921,921,921,921,921,921,921,921,921,921,922,922,922,922,923,923,923,923,923,923,923,923,923,923,923,923,923,924,924,923,924,923,924,924,924,924,924,924,924,924,924,924,924,924,924,924,924,924,924,924,924,924,924,924,924,924,924,924,924,924,924,924,924,924,924,924,925,924,924,924,924,924,924,925,925,925,925,925,925,925,925,925,925,925,925,925,925,924,925,925,925,925,925,925,925,925,925,925,925,925,925,926,926,926,926,926,927,927,927,927,927,926,927,926,926,926,926,926,926,926,926,927,927,927,927,927,927,927,927,927,927,926,927,927,927,927,927,927,927,927,927,927,927,927,927,927,927,927,927,927,927,926,927,926,926,926,926,926,927,927,928,928,927,927,927,927,927,927,927,927,927,927,927,926,926,926,926,926,927,927,927,927,927,927,927,927,927,927,927,927,927,927,927,927,927,927,927,927,927,927,927,927,927,927,927,927,927,927,927,927,927,927,927,927,927,927,927,927,928,927,927,927,928,927,927,927,927,928,928,928,927,928,927,927,928,928,2047,2047,2047,2047,2047,2047,2047,2047
912,912,912,912,912,912,912,913,913,913,912,912,913,913,913,913,913,913,913,913,913,914,914,914,914,914,914,914,914,914,914,914,913,913,913,913,913,913,913,914,914,914,914,914,914,914,914,914,914,914,914,914,914,915,915,915,915,915,915,915,915,915,915,915,915,915,915,915,915,914,915,915,915,915,915,915,915,915,915,915,915,915,915,914,914,914,915,915,915,916,916,916,916,916,916,916,916,916,916,916,917,917,917,917,917,917,916,917,916,916,917,917,917,918,918,917,918,918,918,918,918,918,918,918,918,917,917,918,917,917,917,917,2047,2047,2047,918,917,917,917,916,916,915,914,913,2047,2047,2047,2047,2047,2047,2047,2047,2047,2047,2047,2047,916,916,915,916,916,916,916,915,915,915,916,915,915,915,915,915,915,915,915,915,915,915,915,916,916,916,916,915,915,915,916,916,916,916,916,916,916,916,916,916,915,915,915,915,916,916,915,916,916,916,916,916,916,916,917,917,917,917,917,917,917,917,917,917,917,916,917,917,917,917,917,917,917,917,917,917,917,917,917,917,917,918,917,917,918,917,918,918,917,917,917,918,918,918,917,917,917,917,917,917,917,917,918,918,918,918,918,918,918,918,918,918,918,919,919,919,920,920,919,919,919,919,919,919,919,919,919,918,919,918,918,918,918,918,919,920,919,919,919,920,920,920,920,919,919,920,920,920,920,920,920,920,920,920,920,920,920,920,920,920,920,920,920,921,921,919,919,919,919,918,918,918,919,919,919,919,919,919,919,919,919,919,919,919,919,919,920,919,919,919,920,920,920,920,920,920,920,920,920,920,920,920,920,920,920,920,920,920,920,920,920,920,920,921,921,920,920,920,920,920,920,920,920,921,921,921,921,921,921,921,921,921,921,921,921,921,921,921,921,921,921,921,921,921,930,930,930,930,930,931,931,931,931,931,931,932,932,932,932,932,932,932,932,932,932,932,932,932,932,932,932,932,932,932,932,933,933,932,933,933,933,933,933,932,932,932,932,932,932,932,932,933,932,932,932,933,933,933,933,932,933,933,933,933,933,933,933,933,933,933,933,933,933,933,933,933,933,933,933,933,933,933,933,933,933,933,933,933,933,934,934,934,934,934,934,934,934,933,933,934,935,935,935,935,935,935,935,935,934,934,934,934,935,935,934,935,934,934,935,934,935,935,935,934,934,935,934,935,935,935,935,935,935,935,935,935,935,934,935,935,935,935,935,935,935,935,935,935,935,935,935,935,935,935,934,935,935,936,935,936,936,936,935,936,935,936,936,936,936,935,935,935,935,935,935,935,935,935,936,936,936,936,936,936,935,935,936,936,935,935,935,935,935,935,935,935,935,935,935,935,935,934,935,934,935,935,935,935,935,935,935,935,935,935,935,935,935,936,935,935,935,936,935,935,935,935,936,936,936,936,936,936,935,936,936,936,2047,2047,2047,2047,2047,2047,2047,2047
923,924,925,924,924,925,925,924,924,923,923,923,924,923,923,924,924,923,923,924,924,924,924,924,923,924,924,924,924,924,924,923,924,923,924,924,924,924,924,924,924,924,924,924,924,925,925,925,925,925,926,926,926,926,926,926,926,926,926,926,926,926,926,926,926,926,926,926,925,925,925,926,926,926,926,926,926,926,926,926,926,926,926,925,925,925,925,926,925,926,925,925,925,925,925,925,925,925,925,925,925,926,926,926,926,926,926,926,926,926,926,926,926,926,926,926,926,926,926,926,926,926,926,926,926,926,926,926,926,926,926,926,926,926,926,926,926,926,926,926,926,926,925,925,925,925,925,925,925,925,925,925,925,926,926,925,925,925,925,925,925,925,925,924,924,925,924,924,924,924,925,925,925,925,925,925,925,925,925,925,925,925,925,926,926,926,925,926,925,925,925,925,925,925,925,925,925,925,925,926,926,926,926,926,926,926,926,926,926,926,926,926,926,926,926,926,926,926,926,926,926,926,926,927,926,926,926,926,926,926,926,926,926,926,926,926,926,926,926,926,926,927,927,926,927,927,927,927,927,927,927,927,927,927,926,926,926,927,927,927,927,927,927,927,927,928,928,928,928,929,929,929,929,929,929,929,929,929,929,929,929,929,929,929,929,929,929,929,929,929,929,929,929,929,929,929,929,929,929,928,929,929,929,929,929,929,929,929,929,929,929,929,929,929,929,929,930,930,930,930,930,929,929,928,928,928,928,928,928,928,928,928,928,928,928,928,928,928,928,928,929,929,928,929,928,929,929,929,929,929,929,929,929,929,929,929,929,929,929,929,929,929,929,929,929,929,929,929,929,929,929,929,929,929,929,929,929,929,929,930,929,930,930,930,930,930,930,930,931,931,931,931,931,931,931,931,931,930,930,930,930,930,931,931,931,931,931,931,931,932,932,932,932,932,932,932,932,933,932,932,932,932,932,933,932,933,932,933,933,933,933,933,933,933,933,933,933,933,933,933,933,933,933,933,933,933,933,933,933,933,933,933,933,933,933,933,933,933,933,933,933,934,933,934,933,933,933,933,933,933,933,933,933,934,934,934,934,934,934,934,933,934,934,934,934,935,935,935,935,935,935,934,934,934,935,935,935,935,935,935,935,935,935,935,935,935,935,935,935,935,935,935,935,935,936,935,936,936,935,935,935,935,935,935,935,935,935,935,935,935,936,935,935,935,935,935,935,936,936,936,936,936,935,936,936,935,935,936,935,935,935,935,935,936,936,936,937,937,936,936,936,936,936,936,936,936,936,935,935,935,935,935,935,936,936,936,936,936,936,936,936,936,936,936,936,936,936,936,935,936,935,935,935,935,935,935,935,935,935,935,935,936,935,935,935,935,936,935,935,936,936,936,936,936,936,936,936,936,936,936,936,936,936,936,936,936,936,936,936,936,936,936,2047,2047,2047,2047,2047,2047,2047,2047
924,925,925,925,925,926,926,925,925,925,924,924,924,924,924,925,925,924,924,926,925,925,925,925,925,925,925,925,925,925,925,924,924,924,924,924,924,924,925,925,925,925,925,925,925,925,925,926,926,926,926,926,926,926,926,926,926,926,926,927,927,927,926,926,926,926,926,926,926,926,925,926,926,927,927,926,927,927,927,927,927,927,927,926,926,926,926,926,926,926,926,926,926,926,926,926,926,926,926,926,926,926,926,926,926,926,927,926,926,926,926,926,927,926,926,926,926,926,926,926,926,926,926,926,926,926,926,926,926,926,926,926,926,927,926,926,926,926,926,926,926,926,926,925,925,925,925,925,926,926,926,926,926,926,926,926,926,926,926,926,926,925,925,925,925,925,925,925,925,925,925,925,925,926,926,926,926,926,926,926,926,926,926,926,926,926,926,926,926,926,925,926,925,925,926,925,926,926,926,926,926,926,926,926,926,926,926,926,926,926,926,926,926,926,927,926,926,927,926,927,927,927,927,927,927,927,926,926,926,927,927,926,926,926,927,927,927,927,927,927,927,927,928,927,927,928,928,928,928,928,928,928,928,928,927,927,927,927,928,928,928,928,928,928,928,929,929,929,929,929,929,929,929,929,929,929,929,929,929,929,929,929,929,929,929,929,929,930,930,930,929,929,929,929,929,929,929,929,929,929,929,929,929,929,929,929,930,930,930,930,930,930,930,930,930,930,930,930,930,930,930,929,929,929,929,929,929,929,929,929,929,929,929,928,928,929,928,928,929,929,929,929,929,929,929,929,929,929,929,929,929,929,929,929,929,930,930,930,930,930,930,930,930,930,929,930,930,930,930,930,930,929,930,930,930,929,929,930,930,930,930,930,931,931,931,931,931,931,932,931,931,932,932,932,932,932,931,931,931,931,931,931,932,932,932,932,932,932,932,932,932,933,933,933,933,933,933,933,933,933,933,933,933,933,933,933,933,933,933,933,933,933,933,933,933,933,933,933,933,933,933,933,933,933,933,933,933,933,933,933,933,933,934,934,934,933,934,934,934,934,934,934,934,934,934,934,933,934,933,933,934,934,934,935,935,935,935,935,935,935,934,935,935,935,935,935,935,935,936,935,935,935,935,935,935,936,936,936,936,936,936,936,936,936,936,936,935,936,936,936,936,936,936,936,936,936,936,936,936,936,936,936,936,936,936,936,936,936,936,936,936,936,936,936,936,936,936,936,936,936,936,936,936,936,936,936,936,936,936,936,936,936,936,936,936,936,937,937,936,937,936,936,937,936,936,936,936,936,936,936,936,936,936,936,936,936,936,936,937,937,937,936,936,936,936,936,936,936,936,936,936,936,936,936,936,936,936,936,936,936,936,936,936,936,936,936,936,936,936,936,936,936,936,936,936,936,937,937,937,937,937,937,937,937,937,936,936,936,936,936,936,936,2047,2047,2047,2047,2047,2047,2047,2047
925,926,926,926,926,926,926,926,926,926,925,925,925,924,925,925,926,925,925,926,926,926,926,926,925,926,926,925,926,925,925,924,924,924,925,924,925,925,925,925,925,926,926,926,926,926,926,926,926,926,926,926,926,926,927,927,927,927,927,927,927,927,927,927,926,927,927,926,926,926,926,927,927,927,927,927,927,927,927,927,927,927,927,926,926,926,926,927,927,927,926,927,927,926,926,926,926,926,926,927,926,927,927,927,926,927,927,927,927,926,926,926,926,926,926,926,926,926,926,926,926,927,927,926,926,926,926,926,927,926,927,927,927,927,927,927,927,927,927,927,926,926,926,926,926,926,926,926,926,926,926,926,926,926,926,926,926,926,926,926,926,926,926,926,926,926,925,926,925,926,926,926,926,926,926,926,926,926,926,926,926,926,926,926,926,926,926,926,926,926,926,926,926,926,926,926,926,926,926,926,926,926,926,926,926,926,926,926,926,927,927,927,927,927,927,927,927,927,927,928,928,927,927,928,928,928,927,927,927,927,927,927,927,927,927,927,927,927,927,927,927,927,928,927,928,928,928,928,928,928,928,928,928,928,928,928,928,928,928,928,928,928,928,928,929,929,929,929,929,929,929,930,929,929,930,930,929,929,929,929,929,929,929,929,929,930,930,930,930,930,930,930,930,929,929,929,929,929,930,929,930,930,930,930,930,930,930,930,930,930,930,930,930,930,930,930,930,930,930,930,930,929,929,929,929,929,929,929,929,929,929,929,929,929,929,929,929,929,929,929,929,929,929,929,929,929,929,929,929,929,929,930,930,930,930,930,930,931,931,930,930,931,930,930,930,930,930,930,931,930,930,930,931,930,930,930,930,930,930,931,930,931,931,931,931,931,931,932,932,932,932,932,932,932,932,932,932,932,932,932,932,932,932,932,932,932,933,933,933,933,933,933,933,933,933,933,933,933,933,933,933,933,933,933,933,933,933,933,933,933,933,933,933,933,934,933,934,934,934,934,934,934,934,934,934,934,933,934,934,933,934,934,934,934,934,934,934,934,934,934,934,934,934,934,934,934,934,934,934,934,934,935,935,935,935,936,936,936,935,935,935,935,936,936,936,936,936,936,936,936,936,936,936,936,936,936,936,936,936,936,936,936,936,936,936,936,936,936,936,936,936,936,936,936,936,936,936,936,936,936,936,936,936,936,936,936,936,936,936,936,936,936,936,936,936,936,936,937,936,936,936,936,936,937,937,936,936,937,936,936,937,936,936,937,937,937,937,937,936,937,937,937,937,937,937,937,937,936,936,936,936,936,936,937,936,937,937,937,937,937,938,937,937,937,937,937,937,936,936,936,936,936,936,936,936,936,936,936,936,936,937,937,937,937,937,937,937,937,936,936,936,936,936,936,936,936,936,937,937,937,937,937,937,937,937,937,937,936,936,937,937,937,2047,2047,2047,2047,2047,2047,2047,2047
926,926,926,927,927,927,927,927,926,926,926,926,926,926,926,926,926,926,926,927,927,927,926,926,926,926,926,926,926,926,926,925,925,924,925,925,926,926,926,926,926,926,926,926,926,926,926,926,926,926,926,926,927,927,927,927,927,927,927,927,927,927,927,927,927,927,927,927,927,927,927,928,928,928,928,928,928,928,928,928,928,928,928,927,927,927,927,928,928,928,927,928,927,927,927,927,927,927,927,927,927,928,928,927,927,928,928,928,928,927,927,927,927,926,926,926,926,926,927,927,927,927,927,927,927,927,927,927,927,927,927,927,928,928,928,928,928,927,927,928,927,927,927,926,926,926,926,926,926,927,926,926,926,926,926,926,926,926,926,926,926,926,926,926,926,926,926,926,926,926,926,927,927,928,927,927,927,926,926,926,927,926,927,926,927,927,926,926,926,926,926,926,926,926,926,926,926,926,927,927,927,927,927,927,927,927,927,927,927,927,927,927,927,928,928,928,928,928,928,928,928,928,928,928,928,928,928,928,928,928,928,928,928,928,928,928,928,928,928,928,928,928,928,928,928,929,929,929,928,929,929,929,929,929,929,929,929,929,929,929,929,929,929,929,929,929,929,929,929,930,930,930,930,930,930,930,930,930,930,929,930,930,930,930,930,930,930,930,930,930,930,930,930,930,930,930,930,930,930,930,930,930,930,930,930,930,930,930,930,930,930,930,930,930,930,930,930,931,931,930,930,929,929,929,929,929,929,929,930,929,929,929,929,929,929,930,929,929,930,930,930,930,930,929,930,930,929,929,929,930,930,930,930,930,931,931,931,931,931,931,931,931,931,931,931,931,931,931,931,931,931,931,931,931,931,931,931,931,931,932,931,932,932,932,932,932,932,932,932,932,932,933,933,933,933,933,933,933,933,932,932,933,933,933,933,933,933,933,933,933,933,934,934,934,934,933,933,934,933,933,933,934,934,934,934,934,934,934,934,934,934,934,934,934,934,934,934,934,934,934,935,935,935,935,935,935,934,935,935,934,935,934,935,935,935,935,935,935,935,935,935,935,935,935,935,934,934,935,935,935,935,935,936,936,936,936,936,936,936,936,936,936,936,936,936,936,936,936,936,936,936,936,936,936,936,937,936,937,936,936,936,936,936,937,936,936,936,937,937,937,936,936,936,936,936,936,936,937,937,937,937,937,936,936,936,936,936,936,936,936,936,936,936,937,937,937,937,937,937,937,937,937,937,937,937,937,937,937,937,937,937,937,937,938,937,938,938,938,937,938,937,937,937,937,937,937,937,936,937,937,936,936,936,937,937,937,937,937,938,938,938,937,937,937,937,937,937,937,937,937,936,937,936,936,936,936,937,936,937,938,938,938,938,938,937,938,937,937,937,937,937,936,937,937,937,937,937,938,938,939,939,938,938,938,938,938,937,937,937,937,938,938,2047,2047,2047,2047,2047,2047,2047,2047
926,927,926,927,927,927,927,927,926,926,926,926,926,926,926,926,927,926,926,927,927,927,927,927,926,927,927,926,927,926,926,926,926,926,926,926,926,926,927,927,927,927,927,927,927,927,927,927,927,927,927,927,927,927,927,927,927,928,928,928,928,927,927,927,927,927,927,928,928,928,929,929,929,929,929,928,928,929,929,928,928,928,928,927,928,928,928,928,928,929,928,929,928,928,928,928,928,928,928,928,928,928,928,928,928,928,928,928,928,928,928,928,928,927,927,927,927,927,927,927,927,928,927,927,927,927,927,927,928,928,928,928,928,929,929,928,928,928,928,928,928,927,927,927,927,927,927,927,927,927,927,927,927,927,927,927,927,927,927,927,927,926,927,926,926,926,926,926,927,927,927,928,928,928,928,927,927,927,927,927,927,927,927,927,927,927,927,927,927,927,927,927,926,927,927,927,927,927,927,927,927,927,927,927,927,928,927,928,928,928,928,928,928,928,929,929,929,929,929,929,929,928,928,929,929,929,929,929,929,929,929,928,928,929,929,929,929,929,929,929,929,929,929,929,929,929,929,929,929,929,929,929,929,929,929,929,929,929,929,929,929,929,930,930,930,930,930,930,930,930,930,930,930,930,930,930,930,930,930,930,930,930,930,930,930,930,930,930,930,930,930,930,930,930,930,930,930,930,931,930,930,930,930,930,930,931,931,931,931,931,931,931,931,931,931,931,931,931,931,931,931,930,930,930,930,930,930,930,930,930,930,930,930,930,930,930,930,930,930,930,930,930,930,930,930,930,930,930,930,930,931,931,931,931,931,931,931,931,931,931,931,932,932,932,931,932,932,932,932,932,932,932,932,932,932,931,932,932,932,932,932,932,932,932,933,932,932,933,933,933,933,933,933,933,933,933,933,933,933,933,933,933,933,933,934,933,933,934,934,934,934,934,934,934,934,934,934,934,934,934,934,934,935,935,935,935,935,935,935,935,935,935,934,935,935,935,935,935,935,935,935,935,935,935,935,935,935,935,935,935,935,935,935,936,936,935,936,936,935,935,935,935,935,935,935,935,935,935,935,935,935,936,936,936,936,936,936,936,936,936,936,936,936,936,936,937,937,936,937,937,937,937,937,937,937,937,937,937,937,937,937,937,937,937,937,937,937,937,937,937,937,937,936,936,936,936,936,937,937,937,937,937,937,937,937,937,937,937,937,937,937,937,937,937,937,937,937,937,937,937,937,937,937,938,938,938,938,938,938,938,938,938,939,939,939,939,939,939,938,938,938,938,938,938,937,937,937,937,937,937,937,937,937,938,937,938,938,938,939,939,938,938,938,938,938,938,938,938,937,937,937,937,937,937,937,937,938,937,938,938,938,938,938,938,938,938,938,938,938,937,937,937,938,938,938,938,938,939,939,939,939,939,939,939,939,938,938,938,938,939,939,939,2047,2047,2047,2047,2047,2047,2047,2047
926,926,927,927,927,927,927,927,927,927,927,927,926,926,927,927,927,927,927,927,927,927,927,927,927,927,927,927,927,927,927,926,927,927,928,927,927,927,927,927,927,927,927,927,927,928,927,928,927,927,927,927,927,928,928,928,928,928,928,928,928,928,928,928,927,928,928,928,928,929,929,929,930,929,929,929,929,929,929,929,929,929,929,928,929,928,928,928,929,929,929,929,929,929,929,929,929,929,928,928,928,929,929,929,928,929,929,929,929,929,929,929,928,928,928,928,928,928,928,928,928,928,928,928,928,929,929,929,929,929,929,929,929,929,929,929,929,929,929,929,928,928,928,928,928,928,928,927,928,928,927,927,927,927,927,927,928,927,927,927,927,927,927,927,927,927,927,927,928,928,928,929,928,929,928,928,927,927,927,927,928,928,928,928,928,928,928,928,927,927,927,927,927,927,927,928,928,928,928,928,928,928,928,928,928,928,928,928,928,928,928,929,929,929,929,929,929,929,929,929,929,929,929,929,929,929,929,929,929,929,929,929,929,929,929,929,929,929,929,929,929,929,929,930,929,930,930,930,930,930,930,929,929,929,929,929,929,929,930,930,930,930,930,930,930,930,930,930,930,930,930,930,930,930,930,930,930,930,930,930,930,930,931,930,930,931,931,931,931,931,931,931,931,930,930,931,931,931,931,931,931,931,931,931,931,931,931,932,931,931,932,931,932,931,932,932,932,932,932,932,932,931,931,931,931,931,931,931,931,931,931,931,931,931,931,931,931,931,931,931,931,931,931,931,931,931,931,930,930,931,931,931,931,931,931,931,932,932,932,932,932,932,932,932,932,932,932,932,932,932,932,932,932,932,932,932,932,932,932,932,932,933,933,933,933,933,933,933,933,933,933,933,933,933,933,933,933,933,933,933,933,933,933,933,934,934,934,934,934,935,935,935,934,935,934,934,934,935,934,935,935,935,935,935,936,935,935,935,936,935,935,935,935,935,935,935,935,935,935,935,936,936,936,936,936,936,936,936,936,936,936,936,936,936,936,936,936,936,936,936,936,936,936,936,936,935,936,936,936,936,936,936,936,937,936,937,937,937,937,937,937,937,937,937,937,937,937,937,937,937,937,937,937,937,937,937,937,937,937,937,937,937,937,937,937,937,937,938,937,942,942,942,942,942,942,942,942,942,943,943,943,943,942,942,942,943,942,942,943,942,942,942,942,942,943,942,942,943,943,943,943,943,944,944,944,944,944,944,944,944,944,944,944,944,944,944,944,944,943,943,943,943,943,943,943,943,943,942,942,942,942,942,943,943,943,943,943,943,943,943,943,943,943,943,943,943,943,943,943,942,942,942,942,942,942,942,942,942,943,943,943,943,943,943,943,943,943,943,943,943,943,943,943,943,944,943,943,943,943,943,943,943,943,943,944,943,943,943,943,943,944,944,2047,2047,2047,2047,2047,2047,2047,2047
937,936,937,937,937,938,937,937,937,938,938,937,937,937,937,937,937,937,937,938,937,937,937,937,937,937,937,937,937,938,938,938,938,938,938,937,937,937,937,938,937,937,937,937,938,938,938,938,938,938,938,938,939,938,938,938,938,938,938,938,938,938,938,938,938,938,938,938,938,938,938,938,938,938,938,938,938,938,938,938,938,938,937,937,937,937,937,937,938,938,938,938,937,937,937,938,937,937,937,937,937,937,938,937,938,937,937,937,937,938,937,937,937,938,938,938,938,937,937,937,937,937,937,937,937,937,937,937,937,937,938,937,937,937,937,937,937,937,937,937,937,937,937,937,937,937,936,937,937,936,936,936,936,936,936,936,936,936,936,936,936,936,936,936,936,936,936,937,937,936,936,936,936,936,936,936,936,936,936,936,936,936,936,936,936,936,936,936,936,936,936,936,936,937,937,937,937,937,937,937,937,937,937,937,936,936,936,937,937,937,937,937,937,937,937,937,937,937,937,937,937,937,937,937,937,937,937,937,937,937,937,937,937,937,937,937,937,937,937,937,937,937,937,937,937,938,938,937,937,937,937,937,937,937,937,937,937,937,937,938,938,938,938,937,938,937,937,937,937,937,938,938,938,938,938,938,938,938,938,938,938,938,938,938,938,938,938,938,938,938,938,938,938,938,938,938,938,938,938,938,938,938,938,938,938,938,938,938,938,938,938,938,938,938,938,938,938,938,938,938,938,938,938,938,938,938,938,938,938,937,937,937,937,937,937,937,937,937,937,938,938,938,938,938,938,938,938,938,938,938,938,938,938,938,938,938,938,938,938,938,939,939,939,939,939,939,939,939,939,939,939,939,939,939,939,939,939,939,939,939,939,939,940,939,940,940,940,940,940,940,940,940,940,940,940,940,940,940,940,940,940,940,941,941,941,941,941,941,940,941,940,940,940,940,940,940,941,941,941,941,941,941,941,941,941,941,941,941,941,941,941,941,942,942,941,941,941,942,941,941,941,941,942,942,941,941,941,942,942,942,942,941,941,942,942,942,942,942,942,942,942,942,942,942,942,941,942,942,942,942,942,943,943,943,943,943,943,943,943,943,943,943,943,943,943,942,943,943,942,943,943,943,943,943,942,942,942,942,942,942,942,943,943,944,944,944,944,943,943,943,943,942,942,942,942,943,943,943,943,944,943,944,943,943,943,944,943,943,943,943,943,943,943,943,943,943,943,944,944,944,944,944,944,944,944,944,944,944,944,944,944,944,944,944,944,944,944,944,943,943,943,943,943,943,943,943,943,943,943,943,943,943,943,943,943,943,943,943,944,943,943,943,944,944,943,943,943,943,943,943,943,943,943,943,942,942,942,943,943,943,943,943,943,943,943,944,943,943,944,943,943,944,944,944,944,944,944,944,944,944,944,944,944,944,944,944,944,944,944,944,944,944,2047,2047,2047,2047,2047,2047,2047,2047
937,937,937,937,937,938,938,937,938,938,938,938,938,938,937,938,938,938,938,938,937,937,938,938,938,938,938,938,938,939,939,939,939,939,938,938,938,938,938,938,937,937,937,938,938,938,938,938,939,939,939,939,939,939,939,939,939,939,939,938,938,938,938,938,938,938,938,938,939,939,939,939,939,939,939,938,939,939,938,938,938,938,938,937,937,937,938,938,938,938,938,938,938,938,938,938,938,938,938,938,938,938,938,938,938,938,938,938,938,938,938,938,938,938,938,938,938,938,938,938,938,938,937,937,937,938,938,937,938,938,938,938,938,938,938,938,937,937,938,937,937,938,938,938,938,938,937,937,937,937,937,937,936,937,937,937,937,936,937,936,936,936,937,937,937,937,937,937,937,937,937,937,937,937,937,937,937,937,936,937,937,937,936,937,937,937,937,937,937,937,937,937,937,937,937,937,937,937,937,937,937,937,937,937,937,937,937,937,937,937,937,937,937,937,937,937,937,937,937,937,937,937,937,937,938,937,938,938,937,937,937,937,937,938,938,937,938,938,938,938,938,938,938,938,938,938,938,938,938,938,938,938,937,938,938,938,938,938,938,938,938,938,938,938,938,938,938,938,938,938,938,938,938,938,938,938,938,938,938,938,938,938,938,938,938,938,938,938,938,939,939,938,938,939,939,939,939,939,939,939,939,939,939,939,939,939,939,939,939,940,939,939,939,939,939,939,939,939,939,939,939,938,938,938,938,938,938,939,939,938,938,938,938,938,938,938,938,938,938,938,938,938,938,939,939,938,939,938,939,939,938,938,938,939,939,939,938,939,939,939,939,939,939,939,939,939,939,939,939,939,939,939,939,940,940,940,940,940,940,940,940,940,940,940,940,940,940,940,940,940,940,940,940,941,941,941,941,941,941,941,941,941,941,941,941,941,941,941,941,941,941,941,941,941,940,941,941,941,941,941,942,942,942,942,942,942,942,942,942,942,942,942,942,942,942,942,942,942,942,942,942,942,942,942,942,942,942,943,943,943,943,942,942,942,942,942,942,942,942,942,943,943,943,942,942,942,942,942,942,943,943,943,943,943,943,944,944,944,944,944,943,944,943,943,943,943,943,943,943,943,943,943,943,943,943,943,944,943,943,943,944,944,944,944,944,944,944,944,944,943,943,943,943,943,943,944,944,944,944,944,944,944,944,944,944,944,944,944,944,944,944,943,943,944,944,944,944,944,944,944,944,944,944,944,944,944,944,944,944,944,944,944,944,944,944,944,944,944,944,943,943,943,944,944,943,944,943,943,943,943,943,943,943,943,943,943,943,944,944,943,943,943,944,944,943,943,943,943,943,943,943,943,943,943,943,943,943,943,943,943,943,943,944,943,944,944,944,944,944,944,944,944,944,945,945,945,944,944,944,945,944,944,944,944,944,944,944,944,944,944,944,944,2047,2047,2047,2047,2047,2047,2047,2047
937,937,937,937,937,938,938,938,938,938,939,938,938,938,938,938,938,938,938,938,938,938,938,938,938,938,938,938,939,939,939,939,939,939,939,938,938,938,938,938,938,938,938,938,938,939,939,939,939,939,939,939,939,939,939,939,939,939,939,939,939,939,939,939,939,939,939,939,939,939,939,939,939,939,939,939,939,939,939,939,939,939,939,938,938,938,938,939,939,939,939,938,938,938,938,938,938,938,938,938,938,938,938,938,938,938,938,938,938,938,938,938,938,939,938,938,938,938,938,938,938,938,938,938,938,938,938,938,938,938,938,938,938,938,938,938,938,938,938,938,938,938,938,938,938,938,938,938,938,937,937,937,937,937,937,937,937,937,937,937,937,937,937,937,937,937,937,937,938,937,937,937,937,938,937,937,937,937,937,937,937,937,937,937,937,937,937,937,937,937,937,937,937,937,937,937,937,937,938,938,937,937,937,937,937,937,937,937,937,937,937,937,937,937,938,937,938,938,938,938,938,938,938,938,938,938,938,938,938,938,938,938,938,938,938,938,938,938,938,938,938,938,938,938,938,938,938,938,938,938,938,938,938,938,938,938,938,938,938,939,939,939,939,939,939,938,938,938,938,938,938,938,938,939,939,939,939,939,939,939,939,939,939,939,939,939,939,939,939,940,940,939,939,940,940,940,940,940,940,940,940,940,940,940,940,940,939,939,939,940,940,939,939,939,939,939,939,939,939,939,939,939,939,939,939,939,939,939,940,939,939,939,939,939,939,938,938,938,939,939,939,939,939,940,939,939,939,939,939,939,939,939,939,940,939,939,939,939,939,940,940,940,940,940,940,940,940,940,940,940,940,940,940,940,940,940,940,940,940,940,940,940,940,940,940,940,941,941,941,941,941,941,941,941,941,941,941,941,941,941,941,941,941,941,941,941,941,941,941,941,941,941,941,941,941,941,941,942,942,942,942,942,942,942,942,942,942,943,943,942,943,942,943,942,942,942,942,943,943,943,943,943,943,943,943,943,943,943,943,943,943,943,943,943,943,943,943,943,943,943,943,943,943,943,943,943,943,942,942,943,943,943,944,944,944,944,944,944,944,944,944,944,944,944,944,943,944,944,943,944,944,944,944,944,944,944,944,944,944,944,944,944,944,944,944,944,944,944,944,944,944,944,944,944,944,944,944,944,945,944,944,945,945,944,944,945,944,945,945,944,944,944,944,944,944,944,944,944,944,944,944,944,944,944,944,944,944,944,944,944,944,944,945,945,945,945,945,945,944,944,944,944,944,944,944,944,943,943,943,943,943,943,944,943,944,944,944,944,944,944,944,944,944,944,944,944,944,944,944,944,944,944,944,944,944,944,943,944,943,944,944,943,944,944,944,944,944,944,944,945,944,945,945,945,946,945,945,945,945,945,945,945,944,944,945,944,945,944,944,944,945,945,2047,2047,2047,2047,2047,2047,2047,2047
938,938,938,938,938,938,938,938,938,938,939,939,939,938,939,939,939,939,938,938,938,938,938,938,938,939,939,939,939,939,939,940,939,939,939,939,939,938,938,938,938,938,938,939,939,939,939,939,939,939,939,940,940,939,939,939,939,939,939,939,939,939,939,939,939,939,940,939,940,939,939,940,940,940,940,940,940,940,940,939,939,939,939,939,939,939,940,940,939,939,939,939,939,938,938,938,938,938,938,939,938,938,939,939,939,938,939,939,939,939,939,939,939,939,939,939,939,939,939,939,939,939,939,939,939,939,939,939,939,939,939,938,938,938,938,938,938,938,938,938,938,938,938,938,938,938,938,938,938,938,938,937,937,938,938,937,938,938,938,938,938,938,938,938,938,938,938,938,938,938,938,938,938,938,938,938,938,938,938,938,938,938,938,938,938,938,938,938,938,938,937,937,938,938,938,938,938,938,938,938,938,938,938,938,938,938,938,938,938,938,938,938,938,938,938,938,938,938,938,938,938,938,938,938,938,938,938,938,938,938,938,938,938,938,938,938,938,939,938,938,938,938,938,938,938,938,938,938,939,938,938,938,938,938,938,938,938,939,939,939,940,940,940,940,940,939,939,939,939,939,939,939,939,939,939,939,939,940,940,940,940,940,940,940,940,940,940,940,940,940,940,940,940,940,941,941,941,941,941,941,940,940,940,940,940,940,940,940,940,940,940,940,940,940,940,940,940,940,940,940,940,939,939,939,940,940,940,940,940,940,939,940,939,939,940,939,939,939,940,940,940,940,940,940,940,940,940,940,940,940,940,940,940,940,940,940,940,940,940,940,940,940,940,940,940,940,940,940,940,940,940,940,940,941,941,941,941,941,940,941,941,941,941,941,941,941,941,941,941,941,941,941,941,941,941,941,941,941,941,941,942,942,942,942,942,942,942,942,942,942,941,942,941,941,942,942,942,942,943,943,943,943,943,943,943,943,943,943,944,943,943,943,943,943,942,943,943,943,943,943,943,944,944,944,944,944,944,944,944,944,944,944,944,943,943,943,943,944,944,944,944,944,944,944,944,944,944,943,943,943,943,944,944,944,944,944,944,944,944,944,944,944,944,944,944,944,944,944,944,944,944,944,944,944,944,944,944,944,944,945,945,945,945,945,945,945,945,944,944,944,944,944,944,944,944,945,945,945,945,945,945,945,945,945,945,945,945,945,945,945,945,945,944,944,944,944,945,944,945,944,945,945,945,945,945,944,945,945,945,945,945,945,945,945,945,945,945,945,944,944,944,944,944,944,944,945,944,944,944,944,944,944,944,944,944,944,944,945,944,944,944,944,944,944,944,944,944,944,944,944,944,944,944,945,944,944,944,944,944,944,944,944,944,944,945,944,944,945,945,945,945,945,945,946,946,946,945,945,945,945,945,945,945,944,945,945,945,945,945,945,945,945,2047,2047,2047,2047,2047,2047,2047,2047
939,938,938,939,939,939,939,939,939,939,939,939,939,939,940,940,939,939,939,939,939,939,939,939,940,939,939,940,940,940,940,940,940,939,939,939,939,939,939,939,938,938,938,939,939,939,939,939,940,940,940,940,940,940,940,940,940,940,940,940,940,940,940,940,940,940,940,940,940,940,940,940,940,940,940,940,941,941,941,940,940,940,940,940,940,940,940,940,940,940,940,939,939,939,939,939,939,939,939,939,939,939,940,940,940,939,939,939,940,940,939,940,939,940,940,939,939,939,939,939,940,939,939,940,940,940,940,939,940,939,939,939,939,939,939,939,939,939,939,939,939,939,939,939,939,938,938,938,938,938,938,938,938,938,938,938,938,938,938,938,938,938,939,939,939,939,939,939,939,939,939,939,939,939,939,939,938,938,938,938,938,938,938,938,938,938,938,938,938,938,938,938,938,938,938,938,938,938,938,938,938,938,938,938,938,938,938,938,938,938,938,938,938,938,938,938,939,938,938,939,939,939,939,939,938,939,939,939,939,939,939,939,939,939,939,939,939,939,939,939,939,939,939,938,938,939,939,939,939,939,939,939,939,939,939,939,939,940,940,940,941,941,941,940,940,940,940,940,940,940,940,940,940,940,940,940,940,940,940,941,941,941,941,941,941,941,941,940,941,941,941,941,941,941,941,941,941,941,941,941,941,941,941,941,941,941,941,941,941,941,941,941,941,941,941,941,941,941,941,941,941,940,940,940,940,940,940,940,940,940,940,940,940,940,940,940,940,940,940,940,940,941,940,941,940,940,940,940,940,940,940,940,941,941,941,941,940,941,941,941,941,941,941,940,940,940,940,940,941,941,941,941,941,941,941,941,941,941,941,941,941,941,941,941,941,941,941,941,941,942,942,942,941,942,942,942,942,942,942,942,942,942,942,943,942,942,942,942,942,942,942,942,942,942,943,943,943,943,943,943,943,944,944,944,944,944,944,944,944,944,944,944,944,943,943,943,944,944,944,944,944,944,944,944,944,944,944,944,944,944,944,944,944,944,944,944,944,944,944,944,944,944,944,944,944,944,944,944,944,944,944,944,944,944,944,945,945,945,945,944,944,944,944,944,944,944,944,944,944,944,944,944,944,944,944,944,945,945,945,945,945,945,945,945,945,945,945,945,945,945,945,945,945,945,945,945,945,945,946,945,945,945,945,945,945,945,945,945,945,945,945,945,945,945,945,945,945,945,945,945,945,945,945,945,945,945,945,945,945,945,945,945,945,945,945,945,945,945,945,945,944,944,945,945,945,946,945,944,944,944,944,944,944,944,944,945,945,945,945,945,945,945,945,945,945,945,945,945,945,945,945,945,945,945,945,945,944,945,945,945,945,945,945,945,945,945,945,945,945,946,945,946,946,947,947,946,946,946,946,946,946,946,945,945,946,946,946,945,945,946,946,946,2047,2047,2047,2047,2047,2047,2047,2047
939,939,939,939,939,939,939,939,939,939,940,940,940,940,940,940,940,940,940,940,940,941,941,940,941,941,940,940,940,940,939,940,939,939,939,939,939,939,939,939,938,939,939,939,939,940,940,940,940,941,941,941,940,940,940,940,941,941,940,941,940,940,940,940,940,940,941,940,940,940,940,941,941,941,941,941,941,941,941,941,941,941,941,940,940,940,940,940,940,940,940,940,940,940,939,939,939,939,939,939,939,940,940,940,940,940,940,940,941,940,940,940,940,940,940,940,940,940,940,940,940,940,940,940,940,940,940,940,940,940,940,940,939,939,939,939,939,939,939,939,940,940,940,940,939,939,939,939,939,939,939,939,939,939,939,938,939,939,939,939,939,939,939,940,940,940,940,940,940,940,939,939,939,939,939,939,939,939,939,939,938,938,938,938,938,938,938,939,939,939,938,938,939,938,938,938,938,938,939,939,938,938,938,938,938,938,938,938,938,938,938,938,938,938,939,939,939,939,939,939,939,939,939,939,939,939,940,940,940,940,939,940,940,940,940,940,940,940,940,940,940,939,939,939,939,939,940,940,940,940,940,940,940,940,940,940,940,940,941,941,941,941,941,941,941,941,941,941,941,941,941,941,941,941,941,941,941,941,941,941,941,941,941,941,941,941,941,941,941,941,941,941,941,941,942,942,942,941,941,941,941,941,941,941,941,941,941,941,941,941,941,941,941,941,941,941,941,941,941,941,941,940,940,940,940,940,941,941,941,940,940,940,940,940,940,940,940,940,941,940,941,941,941,941,941,941,941,941,941,941,941,941,941,941,941,941,941,941,941,941,941,941,941,941,941,941,941,941,941,941,941,941,941,941,942,941,941,941,941,942,942,942,942,942,942,942,942,942,942,942,942,943,942,943,943,942,943,943,943,943,943,943,943,943,943,943,943,943,943,943,943,943,943,943,943,944,943,943,944,944,944,944,944,944,944,944,944,944,944,944,944,944,944,944,944,944,944,944,944,944,945,945,945,944,944,944,944,945,944,944,945,945,945,944,944,944,944,944,944,944,944,944,944,944,944,944,944,944,944,944,944,944,945,945,945,945,945,945,945,945,945,945,945,945,945,945,945,945,945,945,945,945,945,945,945,945,945,945,945,945,946,945,945,945,945,946,946,945,945,945,945,945,945,945,945,945,945,946,946,946,946,946,946,946,946,946,945,945,945,945,945,945,945,945,945,945,946,945,946,945,946,946,946,945,945,945,945,945,945,945,945,945,946,946,946,946,946,946,945,945,945,945,945,946,946,946,946,945,945,945,945,945,945,944,945,945,945,945,945,945,945,945,945,945,945,945,946,946,946,946,946,946,946,946,945,946,945,945,946,946,946,945,946,946,946,946,946,946,946,946,946,946,947,947,947,947,947,944,944,944,944,944,943,943,943,943,943,943,943,943,944,944,2047,2047,2047,2047,2047,2047,2047,2047
940,941,943,943,944,945,945,944,945,946,946,945,946,946,946,946,946,946,946,946,946,946,946,946,946,946,946,946,947,946,947,947,947,947,947,947,947,947,946,946,946,947,947,947,947,947,947,948,947,947,947,947,947,947,947,946,947,946,946,946,946,947,946,947,947,947,947,947,946,946,947,947,947,947,947,947,947,947,947,947,947,947,947,946,946,946,946,946,946,946,946,946,946,946,946,945,945,945,945,945,946,946,946,946,946,946,946,946,946,946,946,945,945,946,946,945,945,945,945,946,946,945,945,946,945,946,946,945,945,946,945,945,945,945,945,945,945,945,945,945,945,945,945,945,945,945,945,945,944,944,944,944,944,944,943,943,944,943,943,944,944,944,944,945,944,945,945,944,944,945,944,944,944,944,944,944,944,944,943,943,943,943,943,943,943,943,943,942,942,942,942,942,943,942,943,943,943,943,943,943,943,943,943,942,943,942,942,942,942,942,942,942,942,943,942,943,943,943,943,943,942,942,943,943,943,943,943,943,943,943,943,943,943,943,943,943,943,943,943,943,943,943,943,943,942,943,943,943,943,943,943,943,944,943,944,943,943,943,943,943,944,944,944,944,944,944,944,944,943,943,943,943,943,943,943,943,944,944,944,944,944,944,944,944,944,944,944,944,944,944,944,944,945,944,944,944,944,944,944,944,944,944,944,944,944,944,944,944,944,944,943,944,944,944,944,943,943,943,943,943,943,942,942,942,943,943,942,942,942,942,942,942,942,942,942,942,943,942,943,943,943,943,944,943,943,943,942,943,943,942,942,942,943,943,943,943,943,943,943,943,943,943,943,943,943,942,942,942,942,943,943,943,943,943,944,944,943,943,943,944,944,944,944,944,944,944,944,944,944,944,944,944,944,944,944,944,944,944,944,944,944,944,944,944,944,944,944,944,944,944,944,944,944,944,944,944,944,944,945,944,945,945,945,945,945,945,945,945,945,945,945,945,945,945,945,945,945,945,945,945,945,945,945,944,944,944,945,945,944,944,945,945,945,945,945,945,945,945,945,945,945,945,945,945,945,944,944,944,944,944,944,945,945,945,945,945,945,945,945,945,945,945,945,945,945,945,945,945,945,945,945,945,945,945,945,945,945,945,945,945,945,945,945,945,945,945,945,945,945,945,945,945,945,945,945,945,945,945,945,945,945,945,945,945,945,945,945,944,945,945,945,945,945,945,945,945,945,945,945,945,945,945,945,945,945,945,945,945,945,945,945,945,945,946,945,945,945,945,944,944,944,944,944,944,944,944,944,944,944,944,944,944,945,944,944,944,944,944,944,944,944,944,944,944,944,944,944,944,945,945,945,944,945,945,945,945,944,944,944,945,944,944,944,944,944,944,944,944,944,944,944,944,944,944,944,944,944,944,944,944,944,944,944,944,944,944,944,943,943,943,944,943,2047,2047,2047,2047,2047,2047,2047,2047
940,941,942,943,944,944,945,945,946,946,946,946,946,947,947,947,947,947,946,947,947,947,946,947,946,947,947,947,947,946,947,947,947,947,947,947,947,948,947,947,947,947,948,948,947,947,947,948,948,948,947,947,947,947,947,947,947,947,947,947,947,947,947,947,947,947,947,947,947,946,947,947,947,947,947,947,947,947,947,947,947,947,947,947,947,947,946,946,947,946,946,946,946,946,946,946,946,946,946,946,946,946,946,947,946,946,947,946,946,946,946,946,946,946,946,946,946,946,946,946,946,946,946,946,946,946,946,946,946,946,945,945,945,945,945,945,945,945,945,945,946,945,945,945,945,945,945,945,945,945,945,944,944,944,944,944,944,944,944,945,945,945,945,945,945,945,945,945,945,945,945,945,945,945,944,945,945,944,944,944,944,944,944,943,943,943,943,943,943,943,942,943,943,943,943,943,943,944,944,944,944,944,943,943,944,943,943,943,943,943,943,943,943,943,943,944,944,944,944,944,943,943,944,944,944,944,944,944,944,944,944,944,943,944,944,944,944,944,944,944,944,944,944,943,943,943,943,944,944,944,944,944,945,944,944,944,944,944,944,944,944,945,945,945,945,945,945,944,944,944,944,943,944,944,944,944,944,944,944,945,945,945,945,945,945,945,945,944,945,945,945,945,945,945,945,945,945,945,945,945,945,945,945,945,945,945,945,944,944,944,944,944,944,944,944,944,944,944,944,944,944,943,943,943,943,943,943,943,943,943,943,943,943,943,943,943,943,943,943,943,943,944,944,943,943,943,943,943,943,943,942,943,943,943,943,943,943,943,944,943,944,944,943,943,943,943,943,943,943,943,944,944,944,944,944,944,944,944,944,944,944,944,944,944,944,944,944,944,944,944,944,944,944,944,944,944,944,944,945,945,945,945,945,945,944,944,944,944,944,944,944,944,944,944,945,945,945,945,945,945,945,945,945,945,945,945,945,945,945,945,945,945,945,945,945,945,945,945,945,945,945,945,945,945,945,945,945,945,945,945,945,945,945,945,945,945,945,945,945,945,945,945,945,945,945,945,945,945,945,945,945,945,946,946,946,946,946,946,946,945,945,945,945,945,945,945,946,946,946,946,946,946,945,945,945,945,945,945,945,946,946,945,945,945,945,945,945,945,945,945,945,945,945,945,945,945,945,945,945,945,945,945,945,945,945,945,945,945,945,945,945,945,945,945,945,945,946,945,945,945,945,945,945,945,945,945,945,945,945,945,945,946,946,946,946,946,945,946,945,944,944,944,944,944,944,944,944,944,945,945,945,945,946,945,945,945,945,944,944,944,944,944,944,944,944,944,944,945,945,945,945,944,945,945,945,945,945,945,945,945,944,944,944,944,944,944,944,944,944,944,944,944,944,944,944,944,944,944,944,944,945,944,944,944,944,944,944,944,943,944,944,944,2047,2047,2047,2047,2047,2047,2047,2047
939,941,943,943,944,945,945,946,947,947,947,947,947,948,948,947,947,947,947,947,947,947,947,947,947,947,947,947,947,946,947,947,947,947,947,947,948,948,947,947,948,947,948,948,948,948,947,948,948,948,947,947,947,948,947,947,947,947,947,947,947,947,947,947,947,947,947,947,947,947,947,947,948,948,948,948,948,948,948,948,948,948,948,947,947,947,947,947,948,947,947,947,947,947,947,947,946,946,946,947,947,947,947,947,947,947,947,947,947,946,947,947,946,946,946,946,946,946,946,946,946,946,946,946,946,946,946,946,946,946,946,946,946,946,946,946,946,946,946,946,946,946,946,946,946,946,946,945,945,945,945,945,945,945,945,945,945,945,945,945,945,945,946,946,945,945,945,945,945,945,945,945,945,945,945,945,945,945,945,945,944,944,944,944,944,944,944,943,944,943,943,944,944,944,944,944,944,944,944,944,944,944,944,944,944,944,944,943,943,943,944,943,944,944,944,944,944,944,944,945,944,944,945,945,945,944,945,944,944,944,944,944,944,944,944,944,945,945,945,945,945,945,945,944,944,944,944,945,945,945,945,945,945,945,945,945,945,944,945,945,945,945,945,945,945,945,945,945,944,944,944,944,944,944,944,945,945,945,945,945,945,945,945,945,945,945,945,945,945,945,945,945,945,945,945,945,945,945,945,945,945,945,945,945,945,945,945,945,945,945,945,945,945,945,945,945,945,944,944,944,944,943,944,944,944,944,944,944,944,944,944,943,944,944,944,944,944,944,944,944,944,944,944,944,944,944,944,944,944,944,943,944,944,944,944,944,943,944,944,944,944,944,944,944,944,944,943,943,943,944,944,944,944,944,944,944,944,944,944,945,945,945,944,945,945,945,944,944,945,945,945,945,945,945,945,945,945,945,945,945,945,945,945,945,945,945,945,945,945,944,944,945,945,945,945,945,945,945,945,945,945,945,945,945,945,945,945,945,945,945,945,945,946,946,945,946,946,946,946,946,946,946,946,946,945,945,946,945,945,945,945,945,945,945,945,945,946,946,946,946,946,945,945,945,945,945,945,945,945,945,945,946,946,946,946,946,946,946,946,946,946,946,945,946,946,946,946,947,947,947,946,946,946,946,945,946,945,946,946,946,946,946,946,946,946,945,945,945,945,945,945,945,946,945,946,946,946,946,946,946,946,946,945,946,945,946,945,945,945,946,946,946,946,946,946,946,946,946,946,946,946,946,945,945,945,945,945,945,945,945,946,946,946,947,946,946,946,946,945,945,944,944,945,944,944,945,944,945,945,946,945,946,946,946,946,945,945,945,944,944,944,944,944,944,944,944,945,945,945,945,945,944,945,946,946,946,945,945,945,946,945,944,945,944,944,944,944,945,945,945,945,945,945,945,945,945,945,945,945,945,945,945,945,945,945,944,944,944,944,944,945,944,2047,2047,2047,2047,2047,2047,2047,2047
939,941,942,943,944,945,946,946,947,947,948,947,948,948,948,948,947,947,947,947,947,947,947,947,947,947,947,947,947,947,947,947,947,947,947,947,947,947,947,948,948,948,949,949,949,949,949,949,949,949,948,948,948,948,948,948,947,947,947,947,948,947,947,947,947,948,948,947,947,947,948,948,948,948,949,949,949,949,949,949,949,949,949,948,948,948,947,947,948,948,947,948,948,948,948,948,947,947,948,948,948,947,947,948,948,948,948,948,947,947,947,947,947,947,947,946,947,947,947,946,947,947,947,947,946,946,947,946,947,946,946,946,946,946,946,946,946,946,946,946,946,946,946,946,946,946,946,946,946,946,946,945,946,945,945,945,945,945,946,946,946,946,946,946,946,946,946,945,945,945,945,945,945,945,945,945,945,945,945,945,945,945,945,944,944,944,944,944,944,944,944,944,944,944,944,945,945,945,945,945,945,945,945,945,945,944,945,944,944,944,944,944,944,945,944,945,945,945,945,945,945,945,945,945,945,945,945,945,945,945,945,945,944,945,945,945,945,945,945,945,945,945,945,945,945,945,945,945,945,945,945,945,945,945,945,945,945,945,945,945,945,945,945,945,945,945,945,945,945,945,945,945,945,945,945,945,945,945,945,945,945,945,945,945,945,945,945,945,945,946,946,946,946,946,946,946,946,946,945,945,945,945,945,945,945,945,945,945,945,945,945,945,945,945,945,945,945,945,945,945,945,944,944,944,944,944,944,944,944,944,944,944,944,944,944,944,944,944,944,944,944,944,944,944,944,944,944,944,944,944,944,944,944,944,944,944,944,944,944,944,944,944,944,944,944,944,944,944,944,944,944,944,945,944,945,945,945,945,945,945,945,945,945,945,945,945,945,945,945,945,945,945,945,945,945,945,945,945,945,945,945,945,946,945,945,945,945,945,945,945,945,945,945,945,945,945,945,945,946,946,946,946,946,946,946,945,946,945,945,946,946,946,946,946,946,946,946,946,946,946,946,946,946,946,946,946,946,946,946,945,946,946,946,946,946,946,947,947,947,947,947,946,946,946,946,945,945,945,946,946,946,946,947,947,947,947,947,947,947,946,946,946,946,946,946,947,947,947,947,947,947,947,947,947,946,946,946,947,947,947,947,947,947,946,946,946,946,946,946,946,946,946,946,946,946,946,947,947,947,946,946,946,946,946,946,946,946,946,946,946,946,946,946,946,946,947,947,947,946,946,947,946,946,946,946,945,946,946,946,946,946,947,947,947,947,947,946,946,946,945,945,945,946,945,945,945,945,945,946,946,946,946,947,946,947,946,945,945,945,945,945,945,945,945,945,945,945,946,946,946,946,945,946,946,946,946,945,946,946,946,946,945,946,945,946,945,945,945,945,946,946,946,945,946,946,945,946,945,946,946,946,945,945,945,945,945,945,944,944,944,945,945,2047,2047,2047,2047,2047,2047,2047,2047
939,941,942,943,944,946,946,947,948,948,949,949,949,949,949,948,948,948,948,948,947,948,948,948,948,948,948,948,948,948,948,948,948,948,948,948,948,948,948,949,949,949,950,950,950,950,949,949,949,949,949,949,949,949,949,949,948,948,948,948,948,948,948,948,948,948,948,948,948,948,948,949,949,949,949,949,949,950,949,949,949,949,949,948,948,948,948,948,949,948,948,948,948,948,948,948,948,948,948,949,949,948,948,949,948,948,948,948,948,948,948,948,948,948,947,947,947,947,947,947,947,947,947,947,947,947,947,947,947,947,947,947,947,947,947,947,946,946,947,947,947,947,947,947,946,947,947,946,946,946,946,946,946,946,946,945,946,946,946,946,946,946,946,946,946,946,946,946,946,946,946,946,946,946,946,946,946,946,945,945,945,945,945,945,945,945,945,945,945,945,945,945,945,945,945,945,945,945,945,945,945,945,945,945,945,945,945,945,945,945,945,945,945,945,945,945,945,945,945,945,945,945,946,946,946,946,946,946,946,945,945,945,945,945,945,945,945,945,945,945,945,945,945,945,945,945,945,945,946,946,945,945,946,945,946,945,945,945,945,946,946,946,945,945,945,945,945,945,945,945,945,945,945,946,946,946,946,946,946,946,946,946,945,946,945,946,946,946,946,946,946,946,946,946,946,946,946,946,946,946,946,946,946,946,946,946,946,946,946,946,946,946,946,946,946,946,946,945,945,945,945,944,944,944,944,944,944,944,944,944,944,944,944,944,944,944,944,944,944,944,945,945,945,945,945,945,945,945,945,944,944,945,945,944,944,944,944,944,945,944,945,945,944,944,944,944,944,944,944,944,944,945,945,945,945,945,945,945,945,945,945,945,945,945,945,945,945,945,946,946,946,945,945,945,945,945,945,945,945,946,946,946,946,946,946,946,946,946,946,946,945,945,946,946,946,946,946,946,947,947,947,947,946,946,946,946,946,946,946,946,946,947,947,947,947,947,947,947,947,947,947,947,947,947,947,947,947,947,947,946,947,946,946,947,947,947,947,947,947,947,947,947,947,947,947,946,946,946,947,947,947,947,947,947,947,947,947,947,947,947,947,947,947,947,947,947,948,948,948,948,947,947,947,947,947,947,947,947,948,948,947,947,947,947,947,947,947,947,947,947,947,947,947,947,947,947,947,947,947,947,947,947,947,947,947,947,947,947,946,947,947,947,947,947,947,947,947,947,947,947,947,947,947,946,946,946,946,947,947,947,947,948,947,948,947,947,947,947,946,946,946,946,946,946,946,946,946,946,947,946,946,947,947,947,947,947,946,946,946,946,946,946,946,946,946,946,946,947,947,947,947,946,947,947,947,947,946,947,947,947,947,946,947,946,947,946,946,946,946,947,946,947,946,947,946,946,946,946,946,947,947,946,947,946,946,945,945,945,945,945,945,946,2047,2047,2047,2047,2047,2047,2047,2047
939,941,943,943,945,947,947,949,949,949,950,950,950,950,950,949,949,949,949,948,948,948,948,949,949,949,948,949,949,948,949,949,949,949,949,949,949,949,949,949,950,950,950,950,950,950,950,950,950,950,950,949,949,950,949,949,949,949,949,949,949,949,949,949,949,949,949,949,949,949,949,950,950,950,950,950,950,950,950,950,950,950,950,949,949,949,949,949,949,949,949,949,949,949,949,949,949,949,949,949,949,949,948,949,949,949,949,949,948,948,949,949,948,949,948,948,948,948,948,948,948,948,947,947,947,947,947,947,948,948,948,948,948,948,948,947,947,947,947,948,947,947,948,947,947,947,947,947,948,947,947,947,947,947,946,946,946,946,946,946,946,947,947,947,946,946,946,946,946,946,946,946,946,946,946,946,946,946,946,946,946,946,946,946,945,945,945,945,945,945,945,945,945,945,945,946,946,946,946,946,946,946,946,945,946,945,946,945,945,946,945,945,945,946,945,945,945,945,946,946,946,946,946,946,946,946,946,946,946,946,946,946,945,946,946,946,945,946,946,946,946,945,946,946,945,946,946,946,946,946,946,946,946,946,946,946,946,946,946,946,946,946,946,946,946,946,946,946,946,946,946,946,946,946,947,946,946,946,946,946,946,946,946,946,946,946,946,946,946,946,946,946,947,947,946,946,946,946,946,946,946,946,946,946,946,946,946,946,946,946,946,946,946,946,946,946,946,946,946,946,946,945,945,945,945,945,945,945,945,945,945,945,945,945,944,945,945,945,945,945,945,945,945,945,945,945,945,945,945,945,945,945,945,945,945,945,945,945,945,945,945,945,945,945,945,945,945,945,945,945,945,945,945,945,945,945,945,945,945,945,945,945,945,946,946,946,946,946,946,946,946,946,946,946,946,946,946,946,946,947,946,946,947,947,947,946,946,946,946,946,946,946,946,946,946,946,947,947,947,947,947,947,947,947,947,947,947,947,947,947,947,947,948,947,947,947,947,947,947,947,947,947,947,947,948,948,948,947,947,947,947,947,947,947,947,947,948,948,948,948,948,947,947,947,947,947,947,947,947,947,947,947,947,947,948,947,947,947,948,947,948,947,947,947,947,948,948,948,948,948,948,948,948,948,947,948,948,948,948,948,948,948,948,948,947,947,947,947,947,947,947,947,947,947,948,948,948,947,948,948,948,948,947,947,947,948,947,947,947,948,948,948,948,948,948,948,948,948,947,947,948,947,947,947,947,947,947,947,947,947,948,948,948,948,948,948,948,948,947,947,947,946,947,947,947,947,947,947,947,947,947,947,947,947,947,947,947,947,947,947,947,946,946,947,947,947,947,947,947,947,947,946,947,947,947,947,947,947,947,947,947,947,947,947,947,947,947,947,947,947,947,947,946,947,947,946,947,947,947,947,947,946,947,947,946,946,946,945,945,946,946,946,2047,2047,2047,2047,2047,2047,2047,2047
939,941,943,944,946,947,948,949,949,949,950,950,950,950,950,950,949,950,949,949,949,949,949,949,950,950,950,950,950,950,950,950,950,950,949,949,949,949,949,949,950,950,950,950,950,950,950,950,950,950,950,950,950,950,950,950,950,950,950,949,950,950,950,950,950,950,950,950,950,950,950,950,950,950,950,950,950,951,950,950,950,950,950,949,949,949,950,950,950,950,949,949,949,949,949,949,949,949,949,949,949,949,949,949,949,949,949,949,949,949,949,949,949,949,948,948,948,948,948,948,948,948,948,948,948,948,948,948,948,948,948,948,948,949,948,948,948,948,948,948,948,948,948,948,948,948,948,948,948,948,948,948,948,947,947,947,947,947,947,947,947,947,947,947,947,947,947,947,947,947,947,947,946,946,946,946,946,946,946,946,946,946,946,946,945,945,945,945,946,946,946,946,950,951,951,951,951,950,951,950,951,951,951,951,951,951,951,951,951,951,951,951,951,951,951,951,951,951,951,951,951,952,951,952,952,951,951,951,950,950,950,950,950,950,950,950,950,950,950,950,950,951,951,951,951,951,951,951,952,951,951,952,951,951,951,951,951,951,951,951,951,951,951,950,951,951,950,951,950,951,951,951,951,951,951,951,951,951,951,951,951,951,951,951,951,951,951,951,951,951,952,952,952,951,951,951,951,951,951,950,950,950,950,951,951,951,951,951,950,951,951,950,950,950,950,951,950,950,950,950,950,949,949,949,949,949,949,949,949,949,949,949,949,949,949,949,949,949,949,949,949,949,949,949,949,950,950,950,950,949,949,949,949,949,949,949,949,949,949,949,949,949,949,949,949,949,949,949,949,949,950,950,950,950,950,950,949,949,949,949,949,949,949,949,949,949,949,949,950,949,950,950,950,950,950,950,949,950,950,950,950,950,950,950,950,950,950,950,950,949,950,950,950,949,950,950,950,950,950,951,951,951,951,951,951,951,951,950,950,950,951,951,951,950,950,950,950,950,950,950,950,950,950,950,951,950,950,950,950,950,950,950,950,950,950,950,951,951,951,951,950,950,950,950,950,949,950,950,950,950,950,950,950,950,949,950,949,950,949,949,949,950,950,949,950,950,950,950,950,950,950,950,950,950,950,950,950,950,950,950,950,950,950,950,950,950,950,950,950,950,950,950,950,950,950,950,950,950,950,950,950,950,950,949,950,949,949,949,949,950,949,949,950,950,950,950,950,950,950,950,950,950,950,949,949,950,950,950,949,950,950,950,949,949,949,949,949,949,948,948,948,948,948,948,949,948,949,949,949,948,949,948,948,948,948,948,948,948,948,949,949,949,949,948,948,949,949,948,949,949,949,949,949,948,948,948,948,948,948,948,949,949,949,949,949,949,948,948,948,948,948,948,949,949,949,949,949,949,949,948,948,948,948,948,948,948,948,948,948,948,948,948,2047,2047,2047,2047,2047,2047,2047,2047
934,935,936,935,937,939,941,941,951,953,953,954,954,954,955,955,955,955,955,956,957,957,956,957,957,956,956,956,955,955,955,955,955,955,955,955,955,955,955,955,956,956,956,955,955,955,956,956,955,956,956,956,956,956,956,955,955,955,955,955,956,955,956,956,956,956,956,956,956,956,956,957,956,956,956,957,957,956,956,956,956,956,956,954,955,955,955,955,955,955,955,955,955,955,955,955,955,955,955,955,955,954,955,955,955,954,954,954,954,954,954,954,954,954,954,954,954,954,955,955,955,955,955,955,955,954,954,954,954,954,954,954,954,954,954,954,954,954,954,954,954,954,953,953,953,954,954,953,953,953,953,953,953,953,953,953,953,953,953,953,953,953,953,953,953,953,953,953,952,953,952,952,952,952,952,952,952,952,952,952,952,952,952,952,952,951,951,952,952,952,951,951,951,951,951,951,951,951,951,951,951,951,951,952,952,952,951,952,952,951,952,951,951,951,952,951,951,951,951,951,952,952,952,952,952,952,952,952,951,951,951,951,951,951,951,951,951,951,951,951,951,951,952,951,952,952,952,952,952,952,952,952,952,952,952,952,952,951,951,951,952,951,951,951,951,952,951,952,952,952,952,952,952,952,951,951,951,951,951,951,951,951,952,951,952,952,952,952,952,952,952,952,952,952,952,952,951,951,951,951,951,951,951,952,952,952,952,951,951,951,951,951,951,951,951,952,951,951,951,951,950,949,949,949,950,950,950,950,950,950,950,950,949,949,949,949,949,949,949,949,949,949,950,950,950,950,950,950,950,950,950,950,949,950,949,950,949,950,949,950,950,950,949,949,949,949,949,949,950,949,950,950,950,950,950,950,950,950,950,950,949,950,950,950,950,950,950,950,951,950,950,950,950,950,950,950,950,950,950,950,950,950,951,950,950,951,951,951,950,950,950,950,950,950,950,950,951,951,951,951,951,951,951,951,951,951,951,951,951,951,951,951,951,951,951,951,951,951,951,951,951,951,951,951,951,951,951,951,950,951,950,951,951,951,951,951,952,951,951,951,951,951,951,951,951,950,950,950,950,950,950,950,950,950,950,951,950,951,950,950,950,950,950,950,951,951,951,951,951,951,951,951,951,950,950,951,951,951,951,951,951,951,951,951,950,950,950,951,951,951,951,951,951,950,951,951,951,951,951,950,950,950,951,950,950,950,950,950,950,950,950,950,950,950,950,951,950,950,950,951,951,950,950,950,950,950,950,950,950,950,950,950,950,950,950,949,949,949,948,948,949,949,949,949,949,949,949,949,950,949,949,949,949,949,949,949,949,949,949,949,950,950,950,949,949,950,950,949,949,950,950,950,949,949,949,949,949,949,949,949,949,950,949,950,950,949,949,949,949,949,949,949,949,949,949,949,949,949,950,949,949,949,949,949,948,948,948,948,948,948,948,948,2047,2047,2047,2047,2047,2047,2047,2047
935,935,936,937,939,940,940,951,951,953,953,954,954,954,955,955,955,955,955,956,957,957,957,957,957,957,957,956,956,956,956,956,956,955,955,956,955,956,955,955,956,956,956,956,956,956,956,956,956,956,956,956,956,956,956,956,956,956,956,956,956,956,956,956,956,957,957,957,956,956,957,957,957,957,956,957,957,957,956,956,956,956,956,955,955,955,955,956,956,955,956,956,955,955,955,955,956,956,956,956,956,955,956,956,955,955,955,954,954,955,954,954,954,954,955,955,955,955,955,956,955,955,955,956,956,955,955,955,955,955,955,955,955,954,955,954,954,954,954,954,954,954,954,954,954,954,954,954,954,954,953,953,953,953,953,953,953,953,953,953,953,953,953,953,953,953,953,953,953,953,953,953,953,953,953,953,953,953,953,953,953,953,953,953,953,952,953,953,953,953,952,952,952,952,952,952,951,951,952,952,952,952,952,952,953,953,952,952,952,952,953,953,953,952,953,952,952,952,952,952,952,952,952,953,952,952,952,952,952,951,951,951,952,952,951,952,952,952,952,952,952,952,952,952,952,952,952,952,953,953,953,953,953,953,953,953,952,952,952,952,952,952,952,952,952,952,952,952,952,953,952,952,952,952,952,952,952,952,952,952,952,952,952,952,952,952,953,953,953,953,953,953,953,953,952,952,952,952,952,952,952,952,952,952,952,953,952,952,952,952,952,952,952,952,952,952,952,952,952,952,951,950,950,950,951,951,951,950,951,951,951,950,950,950,950,950,950,950,950,950,950,950,950,950,950,951,951,951,951,950,951,950,950,951,950,950,951,951,951,951,951,950,950,950,950,950,950,950,950,950,951,951,951,951,951,951,951,950,950,951,950,950,951,950,951,951,951,951,951,951,951,951,951,951,950,951,951,951,951,951,951,951,952,951,951,952,951,951,951,951,951,951,951,951,951,951,952,952,952,952,952,952,952,952,952,952,952,951,952,952,952,952,952,952,952,952,951,952,951,951,952,951,952,952,952,951,952,952,951,952,951,952,952,952,952,951,952,951,952,951,951,951,951,951,951,951,951,951,951,951,951,951,951,951,951,951,951,951,951,951,951,951,951,951,951,951,951,951,951,951,951,951,951,951,951,951,951,951,952,951,951,951,951,951,951,951,951,951,951,951,951,951,951,951,951,951,951,952,951,951,951,951,952,951,951,951,950,951,951,951,950,950,951,951,951,951,951,951,951,951,951,951,951,950,951,951,951,951,951,951,951,951,950,950,950,950,950,949,949,949,949,950,949,950,950,950,950,950,950,950,950,950,949,949,949,949,949,949,949,950,950,950,950,950,950,950,950,950,950,950,951,951,950,950,950,950,949,949,949,949,950,950,950,950,950,950,950,949,950,950,950,950,950,950,950,950,950,950,950,950,949,949,949,949,949,948,948,948,948,948,948,948,2047,2047,2047,2047,2047,2047,2047,2047
935,935,938,938,938,947,947,2047,952,953,954,955,955,955,955,955,955,956,956,957,957,957,957,957,957,957,957,956,957,956,956,956,956,955,956,956,956,956,956,956,956,957,957,957,956,956,956,956,956,956,956,956,957,957,956,957,957,956,956,956,956,956,957,957,957,957,957,957,957,957,957,957,957,957,957,957,957,957,957,956,957,956,956,955,955,956,956,956,956,956,956,956,956,956,956,956,956,957,957,956,957,956,957,956,956,955,955,954,955,955,955,954,955,955,955,955,955,956,956,956,956,956,956,957,956,956,956,956,955,955,955,955,955,955,955,955,955,955,955,955,955,955,955,954,954,954,954,954,954,954,954,954,954,953,953,953,953,953,954,954,954,953,953,953,953,953,953,953,953,953,953,953,953,953,953,953,953,953,953,953,953,953,953,953,953,953,953,953,953,953,953,953,953,953,953,952,952,952,953,953,953,953,953,953,953,953,953,953,953,953,953,953,953,953,953,953,953,953,953,952,953,953,953,953,953,953,953,953,952,952,952,952,952,952,952,952,953,953,953,953,953,953,953,953,953,953,953,953,953,953,953,953,953,953,953,953,953,953,953,953,953,953,953,953,953,953,953,953,953,953,953,953,953,953,953,953,953,952,952,952,953,953,953,953,953,953,953,953,953,953,953,953,953,953,953,953,953,953,953,953,953,953,953,953,953,953,953,953,953,953,953,953,953,952,952,953,952,952,952,952,952,951,951,951,951,951,951,951,951,951,951,951,951,950,950,950,950,950,950,950,951,951,951,951,951,951,951,951,951,951,951,951,951,951,951,951,951,951,951,951,951,951,951,951,951,951,951,951,951,951,952,952,952,952,952,952,951,951,951,951,951,951,952,951,952,952,952,952,952,952,951,951,951,951,951,951,951,951,951,951,952,952,952,952,952,952,952,952,951,952,952,952,952,952,952,952,952,952,952,952,952,952,952,952,952,952,952,952,952,952,952,952,952,952,952,952,952,952,952,952,952,952,952,952,952,952,952,952,951,952,952,952,952,952,952,951,952,952,952,951,952,952,952,952,952,951,951,952,952,952,952,952,951,952,951,952,951,951,951,952,951,951,951,951,951,951,952,952,952,952,952,952,952,952,952,952,952,952,952,952,952,952,952,952,952,952,952,952,952,952,952,952,952,952,952,952,952,952,952,952,952,952,952,952,951,951,951,952,952,952,951,951,952,952,951,952,951,952,952,952,952,951,952,951,951,951,951,952,951,952,951,951,951,951,951,950,950,950,950,950,950,951,950,951,951,951,951,951,951,951,951,951,950,950,950,950,950,950,950,950,950,951,951,951,951,951,951,951,951,951,951,951,951,951,951,951,950,950,950,950,950,951,950,951,951,951,950,950,950,950,951,950,950,950,951,950,951,950,950,950,950,950,950,949,949,949,948,948,949,948,949,949,2047,2047,2047,2047,2047,2047,2047,2047
935,935,935,939,945,947,947,949,951,953,954,955,955,956,956,956,956,956,957,957,958,958,957,958,958,958,957,957,957,957,957,957,956,956,956,956,956,956,956,957,957,957,958,957,957,957,957,957,957,957,957,957,957,957,957,957,958,957,957,957,957,957,958,957,957,958,958,958,957,958,958,958,958,958,957,958,958,958,957,957,957,957,957,956,956,957,956,957,957,956,956,957,957,957,957,957,957,957,957,957,957,957,957,957,957,956,956,955,955,956,956,955,956,956,956,956,956,956,957,957,956,957,957,957,957,957,956,956,956,956,956,956,955,955,955,955,956,956,956,955,955,955,955,955,954,954,954,954,954,954,954,954,954,954,954,954,954,954,954,954,954,954,954,954,954,954,954,954,954,954,954,954,954,954,954,954,954,954,954,954,954,953,953,953,953,953,953,953,953,954,953,953,953,953,953,953,953,953,953,953,953,953,953,953,953,953,953,953,953,953,954,954,954,953,953,953,953,953,953,953,953,953,953,953,953,953,953,953,953,953,953,953,953,953,953,953,953,953,953,953,953,953,953,953,953,953,953,953,953,953,953,953,953,953,953,953,953,953,953,953,953,953,953,953,953,953,953,953,953,953,953,953,953,953,953,953,953,953,953,953,953,953,953,953,954,954,954,954,954,953,953,954,953,953,953,953,953,953,953,953,953,953,953,953,953,953,953,953,953,953,953,953,953,953,953,953,953,953,953,953,953,952,952,951,952,952,952,952,952,952,952,952,952,951,951,951,951,951,951,951,951,951,951,952,952,952,952,952,952,951,951,951,951,952,951,952,952,952,952,952,952,952,952,951,951,952,951,952,952,952,952,952,952,952,952,952,952,952,952,952,952,952,952,952,952,952,952,952,952,952,952,952,952,952,952,952,952,952,952,952,952,952,952,952,952,952,952,952,952,952,952,952,952,952,952,952,953,953,953,953,953,952,952,952,952,952,952,952,952,952,953,953,952,953,952,952,952,952,952,952,952,952,952,952,952,952,952,952,952,952,952,952,952,952,952,952,952,952,952,952,952,952,952,952,952,952,952,952,952,952,952,952,952,952,952,952,952,952,952,952,952,952,952,952,952,952,952,952,952,952,952,952,953,953,952,953,953,953,953,952,952,952,952,952,952,952,952,952,952,952,952,952,952,952,952,952,952,953,953,952,952,952,952,952,952,952,952,952,952,952,952,952,952,952,952,952,952,952,952,952,952,952,952,952,952,952,952,952,952,952,952,952,952,951,951,951,951,951,951,951,951,951,951,951,951,951,951,951,951,951,951,951,951,950,950,951,951,950,950,951,951,952,951,951,951,951,951,951,951,951,951,951,951,951,951,951,951,951,950,951,951,951,951,951,951,951,951,951,951,951,951,950,950,950,951,951,951,951,951,951,950,950,950,950,949,949,949,949,949,949,950,949,2047,2047,2047,2047,2047,2047,2047,2047
935,936,939,939,945,945,947,949,950,954,955,955,956,957,957,957,957,957,957,958,958,958,958,958,958,958,958,958,958,958,958,957,957,957,957,958,957,957,957,957,958,958,958,958,957,958,957,958,957,958,957,958,958,958,958,958,958,958,958,957,958,958,958,958,958,958,958,958,958,958,958,958,958,958,958,958,958,958,958,958,958,958,958,957,957,957,957,957,957,957,957,957,957,957,957,958,958,958,958,958,958,958,958,958,957,957,957,957,957,957,957,956,957,957,957,957,957,957,957,957,957,957,957,958,957,957,957,957,957,957,956,956,956,956,956,956,956,956,956,956,956,956,956,955,954,954,954,954,954,954,954,954,954,954,954,954,954,954,954,954,954,954,954,954,954,954,954,954,954,954,954,954,954,954,954,954,954,954,954,954,954,954,954,954,954,954,954,954,954,954,954,954,954,954,954,953,953,953,953,953,953,953,953,954,954,954,954,954,954,954,954,954,954,954,954,954,953,954,953,953,953,953,953,954,954,953,953,954,953,953,953,953,953,953,953,953,953,953,953,954,953,954,953,953,953,953,953,953,953,953,954,953,953,953,953,953,953,953,953,953,953,953,954,954,953,953,954,954,954,954,954,954,954,954,953,953,953,953,953,953,953,953,953,953,954,954,954,954,954,954,954,954,953,953,953,953,953,953,953,953,953,953,953,954,954,954,954,954,954,954,954,953,953,953,953,953,953,953,953,953,953,952,952,952,952,952,952,952,952,952,952,952,952,952,952,952,952,952,952,952,952,952,952,952,952,952,952,952,952,952,952,952,952,952,952,952,952,952,952,952,952,952,952,952,952,952,952,952,952,952,952,952,952,952,952,952,952,952,952,953,953,953,953,953,953,953,953,953,952,952,952,952,952,952,952,952,952,952,952,952,953,952,952,952,953,953,952,952,952,953,953,953,953,953,953,953,953,953,953,953,953,953,953,953,952,952,952,952,953,953,953,953,953,953,953,953,953,953,953,953,953,953,953,953,953,953,953,953,953,953,953,953,953,953,953,952,953,953,953,952,953,953,953,953,953,952,952,952,952,952,952,952,952,953,952,952,952,952,952,952,952,952,952,952,952,952,952,952,953,953,952,953,953,953,953,953,953,953,953,952,952,952,952,952,952,952,952,953,953,953,952,953,952,952,953,953,953,953,953,953,953,953,953,953,952,953,953,953,953,952,952,953,953,953,953,953,952,952,952,952,952,952,952,952,952,952,952,952,952,953,952,952,952,952,952,952,952,952,951,951,951,951,951,951,951,952,951,952,951,952,952,951,951,951,951,951,951,951,951,951,952,952,952,952,952,951,952,951,952,951,951,951,951,951,951,951,951,951,951,951,951,951,951,952,951,951,951,951,951,951,951,951,951,951,951,951,951,951,951,951,951,951,950,950,950,950,949,949,950,950,950,950,2047,2047,2047,2047,2047,2047,2047,2047
936,936,936,944,944,946,948,950,951,953,955,955,956,957,957,957,957,957,957,958,958,958,958,959,959,959,959,959,959,959,959,958,958,958,958,958,958,958,958,958,958,958,958,958,958,958,958,958,958,958,958,958,958,958,958,958,958,958,958,958,958,958,958,958,958,958,958,958,958,958,958,958,959,958,958,958,959,958,958,958,958,958,958,957,957,957,957,957,957,957,957,957,957,958,958,958,958,958,958,958,958,958,958,958,958,957,957,957,957,957,957,957,957,957,957,957,957,958,958,958,957,958,958,958,958,957,957,957,957,957,957,957,957,957,957,957,957,957,957,957,957,957,956,956,955,955,955,955,955,955,955,955,955,955,955,955,955,955,955,955,955,955,954,954,955,955,954,954,954,955,955,955,955,955,955,955,955,955,954,954,954,954,954,954,954,954,954,954,954,955,954,954,954,954,954,954,954,954,954,954,954,954,954,954,954,954,954,954,954,954,954,954,954,954,954,954,954,954,954,954,954,954,954,954,954,954,954,954,954,954,954,953,954,954,953,954,954,954,954,954,954,954,954,954,954,953,954,954,954,954,954,954,954,954,954,954,954,954,954,954,954,954,954,954,954,954,954,954,954,954,954,954,954,954,954,954,954,953,953,953,954,954,954,954,954,954,955,954,955,954,954,954,954,954,954,954,954,954,954,954,954,954,954,954,954,954,950,950,950,950,950,950,951,951,951,951,951,951,951,951,951,950,950,950,949,949,950,949,950,950,950,950,950,950,950,950,950,950,950,950,950,950,950,950,949,949,950,949,950,949,949,950,950,950,950,950,950,950,950,950,950,950,950,950,950,950,950,950,950,950,950,949,950,950,950,950,950,950,950,950,950,951,951,950,951,951,951,951,950,950,950,949,950,949,950,950,950,950,950,951,951,951,951,951,951,951,951,951,950,951,951,951,950,950,951,951,951,951,951,951,951,951,951,951,950,951,950,951,951,951,951,951,951,951,951,951,951,952,952,952,952,952,952,952,951,951,951,951,951,951,951,951,951,951,950,951,951,951,951,950,951,951,951,951,951,951,951,951,950,950,950,950,950,950,950,950,950,951,951,951,951,950,950,951,951,951,951,951,951,951,951,951,951,951,951,951,951,951,951,951,951,950,951,951,950,950,950,950,950,951,950,950,951,951,951,951,951,951,951,951,951,951,951,951,951,951,951,951,950,950,950,950,950,950,950,950,950,950,950,951,951,950,951,950,951,951,950,950,950,950,950,950,950,950,950,950,950,950,949,949,950,950,950,950,950,950,950,951,950,950,951,950,950,950,950,949,950,950,950,950,950,951,950,950,950,950,950,950,950,950,950,950,949,949,949,949,949,949,949,949,950,950,950,951,951,951,950,950,950,950,950,950,949,949,949,949,949,950,950,949,949,949,949,949,948,948,948,948,948,948,948,948,2047,2047,2047,2047,2047,2047,2047,2047
933,933,933,934,934,934,934,934,935,936,937,939,942,942,947,947,948,953,954,955,955,955,956,956,956,956,956,956,957,957,956,956,955,956,956,956,955,956,955,955,955,956,956,956,956,955,955,955,955,955,955,955,955,955,955,956,955,955,955,955,955,955,955,955,955,956,957,957,957,957,956,956,956,955,956,956,956,956,956,956,956,956,956,955,955,955,955,955,955,955,955,955,955,956,956,956,956,956,956,956,956,956,956,956,956,955,956,956,956,956,956,956,956,956,955,955,955,955,955,954,954,954,955,955,955,955,955,956,955,955,955,955,954,954,954,954,954,954,954,954,954,954,954,954,953,953,953,953,953,953,954,954,954,953,953,953,953,953,953,953,953,953,953,952,953,953,952,952,952,952,952,952,952,952,952,953,953,953,953,953,953,953,953,952,952,952,953,952,952,952,952,952,952,952,952,952,952,952,952,952,951,951,951,952,952,952,952,952,953,952,952,952,952,952,952,952,952,952,952,952,952,951,951,952,951,952,951,952,952,952,952,951,951,951,952,952,951,951,952,952,952,952,951,951,951,951,951,951,951,951,951,951,952,952,952,952,952,952,952,952,952,952,952,952,952,952,952,952,952,952,952,952,952,952,952,952,951,951,951,951,951,951,951,951,952,952,952,952,952,952,952,952,952,952,952,952,952,952,952,952,952,952,952,952,951,951,951,951,951,951,951,951,951,951,952,952,952,952,952,952,952,951,950,950,950,950,950,950,951,950,951,950,950,951,950,951,951,951,951,951,950,950,950,950,950,950,950,950,950,950,950,950,950,950,950,950,950,950,950,950,950,950,950,950,950,951,951,951,951,951,950,950,950,950,950,950,950,950,950,951,951,951,951,951,951,951,951,951,950,950,950,950,950,950,950,950,950,950,951,951,951,951,951,951,952,952,952,951,951,952,951,951,951,951,952,952,952,952,952,952,952,952,952,952,952,952,951,952,952,952,951,952,952,952,952,952,952,952,952,952,952,952,952,952,952,952,952,952,951,951,951,951,951,952,951,951,952,952,951,951,951,951,952,951,951,951,951,951,951,951,951,951,951,951,951,951,951,951,951,951,951,951,951,951,951,951,951,951,951,951,951,951,951,951,951,951,951,952,952,952,951,951,952,952,951,951,951,951,951,951,951,951,951,952,952,952,952,952,951,951,952,952,951,951,951,951,952,952,951,951,951,951,951,951,951,951,950,950,951,951,951,951,951,951,951,951,951,951,951,951,951,951,951,951,951,951,951,951,950,950,950,951,951,951,951,951,951,951,951,951,951,951,950,950,950,950,950,950,950,951,951,951,951,951,951,950,951,951,951,951,951,951,950,950,950,950,950,950,950,950,951,951,951,951,951,951,950,951,950,950,951,950,950,950,950,949,949,950,950,950,949,949,949,949,949,949,949,949,949,949,949,949,2047,2047,2047,2047,2047,2047,2047,2047
933,933,933,934,934,934,934,934,935,936,2047,2047,2047,947,950,953,953,954,955,956,956,956,957,957,957,956,956,956,957,957,957,956,956,957,957,956,956,956,955,957,955,956,956,956,956,956,955,955,956,956,955,955,956,956,957,957,956,956,956,956,956,956,956,956,957,958,958,958,957,957,957,957,957,956,956,956,957,957,957,957,957,957,957,956,956,955,955,955,955,955,955,955,955,956,956,957,957,957,957,957,957,957,957,957,956,956,957,957,956,956,956,956,956,956,956,956,955,955,955,955,955,955,956,956,956,956,956,956,956,956,955,955,955,954,954,954,954,954,954,954,954,955,954,954,954,954,954,954,954,954,954,954,954,954,954,954,954,954,953,953,953,953,953,953,953,953,952,953,952,952,953,953,953,953,953,953,953,953,953,953,953,953,953,953,953,953,953,953,953,953,953,953,952,952,952,952,953,952,952,952,952,952,952,952,952,953,953,953,953,953,953,953,952,953,952,952,952,953,953,952,952,952,952,952,952,952,952,953,953,953,952,952,952,952,952,952,952,951,952,952,952,952,952,951,951,952,951,951,951,951,952,952,952,952,952,952,952,952,953,953,953,953,953,953,953,953,953,953,953,953,953,952,952,952,952,952,952,952,952,952,952,952,952,952,952,952,952,953,953,953,953,953,952,952,953,953,953,953,953,953,953,953,952,952,952,952,952,952,951,951,952,952,952,952,952,952,952,952,952,953,952,951,951,951,951,951,951,951,951,951,951,951,951,951,951,951,951,951,951,951,951,951,951,951,951,951,951,951,951,951,951,951,951,951,951,951,951,951,951,951,951,951,951,951,951,951,951,951,951,951,951,951,951,951,951,951,951,951,951,951,952,952,952,951,951,952,951,951,951,951,951,951,951,951,951,951,951,951,951,952,952,952,952,952,952,952,952,952,952,952,952,952,952,952,952,952,952,952,952,952,952,952,952,952,952,952,952,952,952,952,952,952,952,952,952,952,952,952,952,952,952,952,952,952,952,952,952,952,952,952,952,952,952,952,952,952,952,952,952,952,952,952,952,952,952,952,952,952,952,951,951,951,951,952,952,951,952,952,952,952,952,952,951,952,952,952,952,952,952,952,952,952,952,952,951,952,952,952,952,952,952,952,952,952,952,952,952,952,952,952,951,951,952,952,952,952,952,952,952,952,952,952,952,952,952,952,952,952,952,952,951,951,952,952,951,951,951,951,951,952,952,952,952,952,952,952,952,952,952,952,952,952,952,951,951,951,951,951,950,950,950,951,951,951,951,951,951,951,951,951,951,951,951,950,951,951,951,951,950,951,951,951,951,951,951,951,951,951,951,951,951,951,951,951,950,950,951,951,951,951,951,951,951,951,951,951,950,951,950,951,951,950,950,950,950,949,950,950,950,950,950,950,950,950,950,950,950,950,950,950,950,950,2047,2047,2047,2047,2047,2047,2047,2047
932,933,933,933,933,934,934,934,934,2047,2047,2047,2047,947,950,953,954,955,956,957,957,957,957,957,957,957,957,957,958,958,957,957,957,957,957,957,957,957,957,958,957,957,957,957,957,956,956,956,956,957,956,957,957,957,958,958,957,957,957,957,957,957,957,957,958,958,958,958,958,958,958,957,958,957,957,957,957,957,957,957,957,957,957,956,956,956,956,956,956,956,956,956,956,956,957,957,957,957,957,957,957,957,957,957,957,957,957,957,957,957,957,957,957,957,956,956,956,956,956,956,956,956,956,957,957,957,956,957,956,956,956,956,955,955,955,955,955,955,955,955,955,955,955,955,954,955,955,955,955,955,955,955,955,954,954,954,954,954,954,954,954,954,954,954,954,953,953,953,953,953,953,953,953,953,953,953,953,953,953,953,953,953,954,954,954,953,954,953,953,953,953,953,953,953,953,953,953,953,953,953,953,953,953,953,953,953,953,953,953,953,953,953,953,953,953,953,953,953,953,953,953,953,953,953,953,953,953,953,953,953,953,952,953,953,953,953,953,952,953,953,953,953,953,952,952,952,952,952,952,952,952,953,953,953,953,953,953,953,953,953,953,953,953,953,953,953,953,953,953,953,953,953,953,953,953,953,952,952,952,953,953,952,952,953,953,953,953,953,953,953,953,953,953,953,953,953,953,953,953,953,953,953,953,953,952,952,952,952,952,952,952,952,953,953,953,953,953,953,953,953,953,952,952,952,952,952,952,952,952,952,952,952,952,952,952,952,952,952,952,952,952,952,952,952,951,951,951,951,951,951,951,952,952,952,952,952,952,952,952,952,952,952,952,952,952,952,952,952,952,952,952,952,952,952,952,952,952,951,952,952,952,952,952,952,952,952,952,952,952,952,952,952,952,952,952,951,952,952,952,952,952,952,952,953,952,953,952,952,952,952,952,952,952,952,952,952,952,953,953,953,953,953,953,953,953,953,953,952,952,952,952,952,952,952,952,952,952,952,952,953,953,953,952,953,952,953,952,952,952,952,952,952,952,952,952,952,952,952,952,952,952,952,952,952,952,952,952,952,952,952,952,952,952,952,952,952,952,952,952,952,952,952,952,952,952,952,952,952,952,952,952,952,952,952,952,952,952,952,952,952,952,952,952,952,952,952,952,952,952,952,952,952,952,952,952,952,952,952,952,952,952,952,952,952,952,952,952,952,952,952,952,952,952,952,952,952,952,952,952,952,952,952,952,952,952,952,952,952,953,952,953,952,952,952,952,952,952,952,951,951,951,951,951,951,951,951,951,951,951,951,952,951,951,951,951,951,951,951,951,951,951,951,951,951,951,951,952,951,951,951,951,951,951,951,951,951,951,951,951,951,951,952,951,951,951,951,951,951,951,951,951,951,951,951,951,950,950,951,950,950,951,950,951,951,950,950,950,950,950,950,950,950,2047,2047,2047,2047,2047,2047,2047,2047
932,933,933,933,933,934,934,933,934,2047,2047,2047,2047,2047,2047,2047,954,955,955,957,956,957,957,958,957,957,958,957,958,958,957,957,957,957,957,957,957,957,958,958,957,957,957,957,957,957,956,956,957,957,957,957,958,958,958,958,958,957,957,957,957,957,958,958,958,958,958,958,958,958,958,958,958,958,958,958,958,958,958,958,958,958,958,957,957,957,957,957,957,957,957,957,956,957,957,958,958,958,957,957,957,957,957,957,957,957,957,957,957,957,957,957,957,957,957,957,957,957,957,956,956,957,957,957,957,957,957,957,957,957,956,956,956,956,956,956,956,956,956,955,955,956,955,955,955,955,955,956,956,955,955,956,955,955,955,954,954,954,954,954,954,954,954,954,954,954,954,954,954,954,954,954,954,954,954,954,954,954,953,954,954,954,954,954,954,954,954,954,954,954,954,953,953,953,953,953,953,953,954,953,953,953,953,953,953,953,953,953,953,953,954,953,953,954,953,954,953,953,953,953,953,953,953,953,953,953,953,954,953,953,953,953,953,953,953,953,953,953,953,953,953,953,953,953,953,953,953,953,953,953,953,953,953,953,953,953,953,953,953,953,953,953,954,954,954,954,954,954,954,953,953,953,953,953,953,953,953,953,953,953,953,953,953,953,954,954,953,953,953,953,954,954,953,954,954,954,954,954,954,954,954,953,953,953,953,953,953,953,953,953,953,953,953,953,953,953,953,953,953,953,953,952,952,952,952,952,952,952,952,952,952,952,952,952,952,952,952,953,952,952,952,952,952,952,952,952,952,952,952,952,952,952,952,952,953,953,953,952,952,952,952,952,952,952,952,952,952,952,952,952,952,952,952,952,952,952,952,952,952,952,952,952,952,952,952,952,952,952,952,952,952,952,952,952,952,952,952,952,952,952,953,953,953,953,952,953,952,952,952,952,952,953,953,953,953,953,953,953,953,953,953,953,953,953,953,953,953,953,953,953,953,953,953,953,953,953,953,953,953,953,953,953,952,953,952,953,952,952,952,952,952,952,952,952,952,952,953,953,953,953,953,952,953,952,952,952,952,952,952,952,952,952,952,952,952,952,952,952,953,953,953,952,952,952,952,952,952,952,952,952,952,952,952,952,952,952,952,952,952,952,952,952,953,952,952,952,952,952,952,952,952,952,952,952,952,952,952,952,952,952,952,952,952,952,952,953,953,953,952,952,952,952,952,952,952,952,952,952,952,952,952,952,953,952,952,953,953,953,953,953,953,953,953,952,952,952,952,952,951,951,951,951,951,951,951,951,951,951,951,952,952,951,951,952,952,952,952,951,951,952,952,952,952,951,951,952,952,952,951,952,952,951,951,951,951,951,951,951,951,951,952,952,952,952,951,952,952,952,951,952,952,952,952,951,951,951,951,951,951,951,951,951,951,951,951,951,951,951,951,951,951,951,2047,2047,2047,2047,2047,2047,2047,2047
932,932,933,933,933,934,933,933,934,2047,2047,2047,2047,2047,2047,2047,2047,955,955,957,957,957,958,958,958,958,958,958,958,958,958,958,958,958,957,957,957,958,958,958,958,958,958,958,958,958,957,957,957,958,958,958,958,958,958,958,958,958,958,958,958,958,958,958,959,959,959,959,959,959,959,959,958,958,958,958,958,958,958,958,958,958,958,957,957,957,957,957,957,957,957,957,957,958,958,958,958,958,958,958,958,958,958,957,957,958,958,957,957,958,958,958,958,957,957,957,957,957,957,957,957,957,957,957,957,957,957,957,957,957,957,957,956,956,956,956,956,956,957,956,956,956,956,956,956,955,955,956,956,956,956,956,956,956,955,955,955,955,954,954,954,955,955,955,955,954,954,954,954,954,954,954,954,955,954,954,954,954,954,954,954,954,954,954,954,954,955,954,954,954,954,954,954,954,954,954,954,954,954,954,954,953,954,954,954,954,953,954,954,954,954,954,954,954,954,954,954,954,954,953,953,953,954,954,954,954,954,954,954,954,953,953,953,954,954,953,953,953,954,954,953,953,953,953,953,953,953,953,953,953,953,954,954,954,954,953,954,954,954,954,954,954,954,954,954,954,954,954,954,954,954,954,954,954,953,953,953,953,954,954,954,954,954,954,954,954,954,954,954,954,954,954,954,954,954,954,954,954,954,954,954,954,954,954,954,953,953,953,953,953,953,953,953,953,953,953,953,954,954,954,953,952,952,953,953,952,953,953,953,952,952,952,953,953,953,953,953,953,953,953,953,953,953,952,952,952,952,952,952,952,953,953,953,953,953,953,953,953,953,953,953,953,952,952,952,952,952,952,952,952,952,952,952,952,952,952,952,952,952,952,952,952,952,952,953,952,952,953,952,953,953,953,952,953,953,952,953,953,953,953,953,953,953,953,953,953,953,953,953,952,953,953,953,953,953,953,953,954,954,954,954,954,954,954,954,953,953,953,953,953,953,953,953,953,953,953,953,953,953,953,953,953,953,953,953,953,953,953,952,952,953,952,953,953,953,953,953,953,953,953,953,953,953,953,953,953,953,953,953,953,953,953,952,953,953,953,953,953,953,953,953,953,953,953,952,953,953,953,952,952,953,953,953,953,952,953,953,953,953,953,952,953,953,953,953,952,952,952,952,953,952,952,952,952,952,953,952,952,952,952,953,953,953,952,953,953,953,953,953,952,953,952,952,952,952,952,952,952,952,953,952,953,953,953,953,953,953,953,953,953,953,953,953,953,953,952,953,953,951,951,951,952,951,952,951,952,952,952,952,952,952,952,952,952,952,952,952,952,951,952,952,952,952,951,952,952,952,952,952,952,952,952,952,951,951,951,951,951,951,951,952,952,952,952,952,952,952,952,952,952,952,952,952,952,951,951,951,951,951,951,951,951,951,951,951,951,951,951,951,951,951,951,2047,2047,2047,2047,2047,2047,2047,2047
932,932,932,933,933,934,933,934,2047,2047,2047,2047,2047,2047,2047,2047,954,955,956,957,957,957,958,958,958,958,958,958,958,958,958,958,958,958,958,958,958,958,958,958,958,958,958,958,958,958,958,958,958,958,958,958,959,959,959,959,959,958,959,958,959,958,958,959,959,959,959,959,959,959,959,959,959,959,959,959,959,959,959,959,959,959,959,958,958,958,958,958,958,958,958,958,958,958,958,958,959,958,958,958,958,958,958,958,958,958,958,958,958,958,958,958,958,958,957,957,957,957,957,957,957,957,957,958,957,958,958,958,957,957,957,957,957,957,957,957,957,957,957,957,957,957,957,956,956,956,956,957,957,957,957,957,957,957,956,956,955,955,955,955,956,956,956,956,956,955,955,955,955,955,956,956,956,956,955,955,955,955,954,955,954,954,955,955,955,955,955,955,955,955,954,954,954,954,954,954,954,954,955,954,954,954,954,954,954,954,954,954,954,954,954,954,954,954,954,954,954,954,954,954,954,954,954,954,954,954,954,954,954,954,954,954,954,954,954,954,954,954,954,954,954,954,954,954,954,954,954,954,954,954,954,954,954,954,954,954,954,954,954,954,954,954,954,954,954,954,954,954,954,954,954,954,954,954,954,954,954,954,954,954,955,955,955,955,954,954,954,954,954,954,954,954,954,954,954,954,954,954,954,954,954,954,954,954,954,954,954,954,954,954,954,954,954,954,954,954,954,954,954,954,954,953,953,953,953,953,953,953,953,953,953,953,953,953,953,953,953,953,953,953,953,953,953,953,953,952,953,953,953,953,953,953,953,953,953,954,954,953,953,953,953,953,953,953,952,953,953,953,952,953,953,953,953,952,953,952,953,952,953,953,953,953,953,953,953,953,953,953,953,953,953,953,953,953,953,953,953,953,953,953,953,953,953,953,953,953,953,953,953,953,953,954,954,954,954,954,954,955,954,955,955,954,954,954,954,954,954,954,953,953,953,954,954,954,954,954,954,954,954,954,954,954,953,954,953,954,953,953,953,953,953,953,953,953,953,953,953,953,953,953,953,953,953,953,953,953,953,953,953,953,953,953,953,953,953,953,953,953,953,953,953,953,953,953,953,953,953,953,953,953,953,953,953,953,953,953,953,953,953,953,953,953,953,953,953,953,953,953,953,953,953,953,953,953,953,953,953,953,953,953,953,953,953,953,953,953,953,953,953,953,953,953,953,952,952,952,952,953,953,953,953,953,953,953,957,957,957,957,957,957,957,957,957,957,957,957,957,956,955,955,955,955,955,955,955,955,955,955,956,956,956,956,956,956,956,956,956,956,956,956,956,956,956,956,956,956,956,956,956,956,956,956,956,956,956,956,956,956,956,956,956,956,956,956,957,957,957,957,957,957,957,956,956,956,956,956,956,956,956,956,956,956,956,956,956,956,956,956,956,956,956,956,2047,2047,2047,2047,2047,2047,2047,2047
