2047,2047,2047,2047,2047,2047,2047,2047,2047,2047,2047,2047,2047,2047,2047,2047,2047,2047,2047,2047,2047,2047,2047,2047,2047,2047,2047,2047,2047,2047,2047,2047,558,557,555,554,552,552,552,551,550,550,548,547,546,545,545,545,544,544,543,543,543,543,544,544,542,542,543,543,544,543,543,543,543,543,543,542,542,541,542,541,542,541,543,542,542,545,545,545,545,546,547,547,546,547,547,547,547,547,547,548,548,549,549,549,549,549,549,549,549,549,550,550,551,551,552,552,552,553,553,554,555,556,558,558,559,559,559,560,561,563,565,566,566,567,568,568,541,541,540,538,538,537,536,535,533,532,531,529,526,525,524,522,521,520,518,516,514,511,510,509,507,506,505,504,504,503,502,502,501,500,500,499,498,497,497,497,495,495,494,494,493,493,492,492,491,491,490,488,485,484,482,482,481,480,479,478,476,476,475,474,474,474,473,473,473,473,473,473,473,474,474,473,473,474,474,474,474,474,474,475,475,474,473,473,473,472,472,470,470,469,468,466,466,465,464,464,463,463,463,462,462,461,460,461,461,460,460,459,459,459,459,458,457,456,454,452,452,452,451,450,449,448,448,447,446,446,445,445,446,445,445,445,445,445,445,445,445,446,445,446,446,446,446,447,446,446,446,446,446,446,446,446,446,446,446,447,446,446,446,445,445,446,445,444,444,444,445,446,445,444,445,445,445,445,444,443,443,444,445,445,445,445,447,446,447,447,446,448,448,449,2047,2047,2047,2047,2047,2047,449,449,450,450,450,451,451,451,452,452,452,453,453,453,454,454,454,454,454,454,455,456,455,456,456,455,455,455,455,454,455,455,455,456,456,456,457,456,456,457,456,456,456,455,454,454,455,454,455,455,455,455,456,456,456,2047,2047,456,456,456,457,457,458,458,458,458,459,459,460,461,462,463,463,463,464,464,464,464,463,464,465,464,464,2047,470,470,470,471,472,472,472,473,473,473,472,472,473,473,473,474,474,475,476,477,478,479,480,481,482,483,483,485,485,486,487,487,487,488,488,488,489,490,490,491,491,491,491,2047,494,494,494,494,493,493,492,491,490,490,490,489,488,488,487,487,486,486,486,465,465,466,466,466,466,466,465,465,464,464,464,464,463,463,463,463,463,463,463,463,463,464,465,466,467,467,468,467,467,467,467,467,2047,452,453,453,452,451,450,450,450,449,449,449,449,448,448,447,447,447,447,445,447,447,446,446,445,446,446,446,446,445,445,445,446,445,445,445,444,444,443,443,443,443,443,443,443,443,445,445,445,445,446,446,446,425,2047,2047,2047,426,427,426,426,425,425,425,425,425,424,425,426,426,427,428,428,430,432,433,434,435,437,439,440,440,440,443,443,443,443,418,418,417,417,417,416,416,416,416,415,416,416,416,417,2047,2047,2047,2047,2047,2047,2047,2047,2047,2047,2047,2047,2047,2047,2047,2047,2047,2047,2047,2047,2047,2047,2047,2047,2047,2047,2047,2047,2047,2047,2047
2047,2047,2047,2047,2047,2047,2047,2047,2047,2047,2047,2047,2047,2047,2047,2047,2047,2047,2047,2047,2047,2047,2047,2047,2047,2047,2047,2047,2047,2047,2047,2047,2047,556,554,553,552,551,551,551,550,550,548,547,545,545,545,545,544,543,543,543,543,542,543,542,542,542,543,543,543,543,543,543,543,543,543,542,542,541,541,541,542,541,543,543,542,545,545,545,545,546,546,546,546,546,546,547,547,546,546,548,549,549,549,549,549,549,549,549,550,549,550,550,551,551,551,552,552,553,554,554,555,556,558,557,558,558,558,560,561,562,566,567,567,567,568,568,542,542,541,539,539,538,536,535,534,533,531,529,526,525,524,522,521,520,517,516,513,510,509,508,507,506,505,504,504,503,503,502,501,500,500,499,498,497,497,497,495,495,494,494,493,493,492,492,491,491,490,486,484,483,481,481,480,480,479,478,476,475,475,474,475,474,474,474,473,473,473,474,473,474,474,474,474,474,475,475,475,475,475,475,475,475,474,473,472,472,471,470,469,468,467,466,465,465,464,463,463,463,463,462,462,461,461,461,461,460,460,459,459,459,459,458,456,456,454,452,452,451,450,449,448,447,447,446,445,445,444,444,445,445,445,445,445,444,444,444,444,445,444,445,446,446,446,446,446,446,446,446,446,446,446,446,446,446,446,446,446,446,446,445,445,445,445,444,444,444,445,445,445,444,444,445,445,444,444,443,443,444,444,445,445,445,446,446,447,447,446,447,447,448,2047,2047,2047,2047,2047,2047,2047,448,449,449,449,450,451,451,452,452,453,453,452,453,454,454,454,454,454,454,455,455,455,455,455,454,454,454,454,454,455,454,455,456,456,456,456,456,456,456,456,456,456,455,454,453,454,454,454,454,454,454,454,456,456,454,454,456,456,456,457,457,457,457,457,457,458,459,459,460,461,462,463,463,464,464,464,464,464,465,466,465,465,2047,470,470,470,471,472,472,472,472,473,473,472,472,474,473,474,474,475,475,476,477,478,479,480,481,482,483,483,485,485,486,486,487,487,487,488,488,489,491,491,492,492,491,2047,2047,2047,494,494,493,493,494,493,492,491,490,490,489,489,489,488,488,487,487,465,465,465,466,466,466,466,466,465,465,465,464,464,464,464,463,464,463,463,463,463,463,464,465,465,466,467,467,468,468,468,467,466,2047,2047,452,453,453,451,451,450,450,450,449,449,449,449,449,448,448,448,447,448,448,448,448,448,446,446,446,446,446,446,445,445,445,445,444,445,444,443,443,442,442,443,443,443,443,444,444,445,445,445,444,444,444,425,425,426,426,426,426,426,425,425,425,425,425,425,425,424,424,426,427,427,428,429,430,432,433,434,435,437,439,440,440,440,440,416,416,416,417,417,417,417,417,416,416,416,416,416,416,416,416,416,416,417,416,416,417,2047,2047,2047,2047,2047,2047,2047,2047,2047,2047,2047,2047,2047,2047,2047,2047,2047,2047,2047,2047,2047,2047,2047,2047,2047,2047
2047,2047,2047,2047,2047,2047,2047,2047,2047,2047,2047,2047,2047,2047,2047,2047,2047,2047,2047,2047,2047,2047,2047,2047,2047,2047,2047,2047,2047,2047,2047,2047,2047,2047,553,552,552,551,551,550,550,550,547,546,545,544,544,544,544,543,543,543,543,542,542,543,542,543,543,543,543,543,543,543,543,543,543,542,542,541,541,541,542,542,543,542,542,542,543,543,543,546,546,546,546,546,546,546,546,546,546,547,548,549,549,549,549,550,550,549,550,550,550,550,550,551,551,552,552,553,554,554,555,556,557,557,558,558,557,559,560,562,566,566,567,568,568,568,568,541,541,539,539,538,537,535,534,533,531,529,527,525,524,522,521,521,519,513,511,510,509,508,506,506,505,504,504,503,503,502,501,500,500,499,498,497,497,496,495,495,494,493,493,492,492,491,490,490,487,485,483,482,481,480,480,480,479,478,476,475,475,474,474,474,474,474,473,473,474,474,473,474,475,474,474,474,475,475,475,475,475,475,475,474,473,473,472,471,471,469,468,467,467,466,465,464,464,463,463,463,462,462,461,461,460,461,461,460,460,460,460,459,459,458,456,456,454,452,452,451,450,449,448,447,447,445,444,444,444,444,444,444,444,444,444,444,444,444,444,444,443,444,445,445,445,446,446,446,446,446,446,446,446,446,446,446,446,446,446,446,445,445,445,445,445,444,445,445,445,446,445,444,444,444,444,444,443,443,442,443,444,444,444,445,447,446,447,447,446,447,446,2047,2047,2047,2047,2047,2047,2047,2047,449,449,449,449,450,450,451,452,452,453,453,453,453,453,453,453,454,453,453,455,456,454,455,455,453,454,454,453,453,454,453,454,455,455,455,456,456,456,456,456,456,456,455,454,454,454,454,455,455,454,454,454,454,454,454,454,455,456,456,457,457,457,457,458,458,458,458,459,460,461,463,463,464,464,464,465,465,465,466,466,465,465,2047,470,470,470,471,472,473,472,473,472,473,472,473,474,473,473,474,475,476,476,477,479,480,480,482,482,483,484,485,485,486,487,487,487,487,488,490,490,491,491,493,493,492,492,2047,2047,495,495,494,494,494,494,493,491,491,490,490,489,489,488,488,488,487,465,465,465,466,466,466,466,466,465,465,465,464,464,464,464,464,464,464,464,464,464,464,465,465,466,466,467,468,468,467,467,467,467,467,2047,452,453,453,452,451,451,450,450,449,449,449,449,449,449,448,448,448,448,448,448,448,448,447,447,446,446,446,446,445,445,445,445,445,444,443,443,442,441,441,442,442,443,443,444,444,444,445,445,445,445,445,425,425,425,425,425,425,425,425,425,424,424,424,425,425,424,424,426,426,427,427,428,430,431,432,432,434,434,434,417,415,415,415,415,415,416,416,416,416,417,416,416,416,416,416,415,415,415,416,416,416,416,415,415,415,414,413,414,414,414,414,414,2047,2047,2047,2047,2047,2047,2047,2047,2047,2047,2047,2047,2047,2047,2047,2047,2047,2047,2047
2047,2047,2047,2047,2047,2047,2047,2047,2047,2047,2047,2047,2047,2047,2047,2047,2047,2047,2047,2047,2047,2047,2047,2047,2047,2047,2047,2047,2047,2047,2047,2047,2047,2047,2047,552,551,551,550,550,550,548,547,546,544,544,544,543,543,543,543,543,543,543,543,543,543,543,543,543,543,543,542,542,543,543,543,542,541,541,542,542,542,541,542,542,543,542,543,543,543,543,544,546,545,546,546,546,546,546,546,547,548,549,549,549,549,549,549,549,549,549,550,550,550,550,551,551,551,553,554,555,556,556,558,557,558,558,558,560,561,563,565,566,567,568,568,568,2047,542,542,540,540,538,537,535,534,532,531,529,526,524,522,521,521,520,520,513,511,509,509,508,506,506,505,504,504,503,502,502,501,500,500,499,498,497,497,496,495,495,494,493,492,492,491,490,489,488,485,484,483,482,480,480,480,479,478,478,476,475,475,475,475,475,474,474,474,474,474,475,474,475,475,475,475,475,475,475,475,475,475,475,475,474,473,473,472,471,471,469,468,467,466,466,465,464,464,463,463,463,462,462,461,461,460,461,461,460,460,460,459,459,459,458,456,456,454,452,452,451,450,449,448,447,446,445,444,444,443,443,443,443,444,444,444,444,443,443,444,444,443,443,444,444,445,445,445,445,446,446,446,446,446,446,446,446,446,446,446,446,446,445,445,445,445,444,445,445,445,446,445,444,445,445,444,444,443,442,442,444,444,444,444,445,446,446,446,446,446,446,445,2047,2047,2047,2047,2047,2047,2047,2047,449,449,449,449,449,450,450,451,451,452,453,453,453,453,453,453,453,453,453,455,455,454,454,454,453,453,453,453,453,454,453,453,454,454,455,455,456,456,456,456,456,456,455,454,454,454,454,454,455,454,454,454,454,454,454,454,455,456,456,457,457,457,457,457,457,458,458,459,460,460,462,463,463,464,464,464,465,466,466,466,466,466,469,470,470,470,471,472,473,472,473,473,473,473,474,474,474,474,475,475,476,477,477,479,480,481,482,483,484,484,485,486,486,487,487,488,489,490,491,492,492,493,494,493,493,2047,2047,2047,494,2047,2047,494,495,494,493,492,491,490,490,490,489,489,488,487,487,487,464,464,465,465,466,466,465,465,465,464,464,464,464,464,464,464,464,464,464,464,465,465,465,466,467,468,468,468,468,468,468,468,2047,451,451,451,451,451,450,450,450,450,450,450,450,450,449,449,449,448,448,448,449,449,2047,449,448,448,446,446,446,445,445,444,445,444,444,444,443,443,442,442,441,442,442,443,443,443,444,444,444,444,444,420,421,425,425,425,425,425,424,425,424,424,423,424,424,424,424,424,424,424,426,427,428,429,430,431,432,432,432,432,417,417,415,415,415,415,415,415,415,415,415,416,416,416,416,415,415,415,415,415,415,415,415,415,414,415,415,414,413,414,414,414,414,414,2047,2047,2047,2047,2047,2047,2047,2047,2047,2047,2047,2047,2047,2047,2047,2047,2047,2047,2047
2047,2047,2047,2047,2047,2047,2047,2047,2047,2047,2047,2047,2047,2047,2047,2047,2047,2047,2047,2047,2047,2047,2047,2047,2047,2047,2047,2047,2047,2047,2047,2047,2047,2047,2047,552,551,550,550,549,549,547,547,545,544,544,544,543,543,543,543,543,543,543,543,543,542,543,543,543,543,542,543,542,543,543,543,542,541,542,542,541,542,541,542,542,542,542,543,543,543,543,543,545,545,545,545,546,546,546,546,547,548,549,549,549,549,549,549,549,549,549,550,550,550,551,551,551,551,552,554,555,556,557,558,558,558,558,558,559,561,563,565,566,568,568,568,2047,2047,2047,543,541,541,539,538,536,534,533,532,532,524,524,522,521,520,520,514,513,511,509,509,508,506,506,505,505,504,504,502,502,501,500,500,499,498,497,497,496,495,494,493,493,492,491,491,489,488,487,484,483,482,481,480,480,479,479,478,478,476,475,475,475,475,474,474,474,474,474,475,475,475,475,475,475,476,476,476,476,476,476,476,476,475,474,473,473,472,471,470,468,468,467,466,465,464,464,463,463,463,462,462,462,461,461,460,461,461,460,460,460,460,460,460,458,456,456,453,452,452,451,450,449,448,447,446,445,444,444,443,443,443,443,443,444,443,443,443,444,444,444,443,443,444,444,444,445,444,445,445,445,445,446,446,446,446,446,446,446,446,446,446,445,445,445,444,444,445,445,445,446,445,444,444,444,444,443,443,442,442,443,444,444,444,445,445,446,446,446,445,445,444,2047,2047,2047,2047,2047,2047,2047,2047,2047,449,449,449,449,450,450,451,451,452,452,452,453,453,453,453,453,453,453,453,453,453,453,454,453,453,453,453,453,454,453,454,454,454,454,455,455,455,456,455,456,457,455,454,454,454,454,455,455,454,454,454,454,454,456,454,455,456,456,456,457,457,457,457,457,458,458,459,460,460,462,463,463,464,464,464,465,466,467,467,467,468,469,469,470,470,471,473,474,473,474,474,475,474,474,475,474,474,475,476,477,478,478,480,481,481,482,483,484,484,485,486,487,488,488,488,490,490,491,492,494,494,495,494,494,2047,2047,2047,2047,2047,2047,495,495,495,494,493,492,491,490,490,490,489,489,488,488,487,487,487,466,466,466,466,465,465,465,464,464,464,464,463,463,463,463,464,464,465,465,465,466,466,467,468,468,468,467,467,467,2047,2047,453,452,452,452,451,450,450,450,450,450,450,450,450,450,449,449,449,449,449,449,449,2047,2047,448,448,447,446,446,445,444,444,444,443,443,442,442,442,441,441,441,441,442,442,442,443,443,443,417,417,418,420,421,423,424,424,424,424,424,424,424,423,423,424,424,424,424,424,424,424,425,426,427,429,430,431,431,431,431,416,417,417,416,415,415,415,415,415,415,415,415,415,415,415,415,415,415,415,415,414,415,415,414,414,414,415,414,414,413,413,414,414,414,414,414,414,415,2047,2047,2047,2047,2047,2047,2047,2047,2047,2047,2047,2047,2047,2047,2047,2047
2047,2047,2047,2047,2047,2047,2047,2047,2047,2047,2047,2047,2047,2047,2047,2047,2047,2047,2047,2047,2047,2047,2047,2047,2047,2047,2047,2047,2047,2047,2047,2047,2047,2047,2047,2047,2047,2047,549,548,548,547,546,544,544,544,544,543,543,543,544,544,544,543,543,544,543,544,544,544,544,543,543,543,543,543,543,542,542,542,542,542,542,542,542,542,542,542,543,543,542,544,544,545,545,545,546,547,546,547,547,547,548,549,549,549,549,550,550,550,550,551,551,552,552,552,552,553,553,553,554,554,556,557,558,558,558,559,559,560,562,565,566,568,568,569,568,2047,2047,2047,2047,2047,2047,2047,2047,2047,537,537,535,2047,518,518,518,518,517,516,515,513,512,510,509,508,507,506,506,505,504,503,502,502,501,500,500,499,498,497,497,497,495,494,493,492,491,490,489,488,487,485,483,483,482,481,480,480,480,480,479,479,477,477,476,477,476,476,476,476,476,476,476,476,476,476,476,476,477,477,477,477,477,477,476,476,475,475,474,474,473,472,471,469,467,466,465,465,464,464,463,463,463,463,462,462,462,462,462,462,462,462,462,462,461,460,459,457,455,454,453,453,452,451,450,449,449,448,447,446,445,444,444,444,444,444,445,445,445,445,445,445,445,445,444,444,444,444,444,443,444,444,445,446,447,447,446,447,448,446,448,448,447,446,447,446,446,446,445,445,446,446,445,445,446,445,446,445,446,446,446,446,446,446,446,446,446,446,446,446,446,446,446,446,445,445,445,2047,2047,2047,2047,2047,2047,448,449,449,449,449,450,450,450,450,451,452,452,452,452,452,452,453,453,453,453,453,453,453,454,453,453,453,454,454,454,454,454,455,455,456,456,456,456,456,456,457,457,456,455,456,456,455,456,455,455,455,455,455,455,456,455,456,456,457,459,459,458,458,459,459,459,460,460,461,462,463,464,464,466,467,468,468,469,469,470,469,470,471,471,471,471,472,474,474,474,475,475,475,474,476,476,476,476,477,478,479,480,481,482,483,483,484,485,486,486,487,489,490,491,491,491,493,494,494,495,496,497,497,497,499,500,501,501,500,498,498,496,495,494,494,492,492,491,491,490,490,490,490,489,489,488,466,466,466,466,466,466,466,465,465,465,465,465,465,465,465,464,465,465,465,466,467,467,468,469,470,471,472,2047,2047,2047,2047,2047,453,453,453,452,453,452,450,451,450,450,450,452,451,452,452,452,450,450,450,450,450,450,450,2047,449,449,448,448,447,447,446,446,445,444,444,443,443,443,442,442,442,442,443,443,443,444,444,444,420,420,421,422,423,423,423,424,424,423,423,423,424,424,424,424,425,425,425,424,425,425,425,426,426,427,427,420,419,418,418,418,417,417,416,415,415,415,415,415,415,415,416,416,416,416,416,416,416,415,415,415,415,415,415,415,415,416,416,415,415,416,416,415,415,415,415,415,415,2047,2047,2047,2047,2047,2047,2047,2047,2047,2047,2047,2047,2047,2047,2047,2047
2047,2047,2047,2047,2047,2047,2047,2047,2047,2047,2047,2047,2047,2047,2047,2047,2047,2047,2047,2047,2047,2047,2047,2047,559,559,2047,2047,2047,2047,2047,2047,2047,2047,2047,2047,2047,2047,2047,2047,2047,2047,547,546,546,546,545,544,544,544,544,544,544,544,544,545,545,545,545,545,546,546,545,544,544,544,544,543,543,544,544,544,544,545,545,545,545,545,545,545,546,546,546,546,546,546,546,546,546,546,547,547,548,549,549,549,549,550,550,550,550,551,551,552,552,553,553,553,553,554,555,555,556,557,558,558,558,559,559,559,561,564,565,567,568,568,568,2047,2047,2047,2047,2047,2047,2047,2047,2047,537,535,535,533,533,518,518,517,516,515,514,513,511,510,509,508,507,506,505,505,504,502,501,501,501,500,500,499,498,497,497,496,495,494,492,491,490,489,488,487,486,484,483,482,481,481,480,480,479,480,479,479,478,477,477,477,477,476,476,476,476,476,476,476,476,476,476,476,476,477,477,477,477,477,476,476,475,475,474,474,473,472,471,468,467,465,464,464,464,464,463,463,463,463,462,462,462,462,462,462,462,462,462,462,461,460,459,458,456,455,453,452,451,451,450,449,449,448,447,446,444,444,443,444,443,444,444,445,445,445,445,445,445,445,444,443,444,444,444,444,444,445,445,446,446,446,446,446,446,446,448,448,447,446,447,446,444,444,444,444,445,445,445,448,446,446,446,446,445,446,446,445,445,445,445,445,445,445,445,445,446,446,446,446,445,445,445,444,2047,2047,2047,2047,2047,448,449,449,449,449,450,450,451,450,450,451,451,451,451,452,452,452,452,452,453,453,453,453,453,453,453,453,453,453,454,453,454,455,455,455,2047,456,456,456,456,457,457,456,455,455,455,455,455,455,455,455,455,455,456,456,455,456,456,458,459,459,458,459,459,459,460,460,461,462,462,463,464,465,466,467,468,468,469,469,470,470,470,470,471,471,471,472,474,474,474,474,474,475,474,476,476,475,475,478,479,480,481,482,483,483,484,484,485,486,487,488,490,490,491,491,492,494,494,495,495,496,498,498,498,499,501,502,502,501,500,498,496,496,495,494,493,492,491,491,491,490,490,490,489,489,466,467,466,466,466,466,466,466,466,465,465,465,465,465,465,465,465,465,465,465,467,467,468,469,470,471,471,472,2047,2047,2047,2047,453,453,453,453,452,452,451,451,451,451,451,452,452,452,453,453,452,451,451,451,450,450,450,450,2047,449,444,444,444,445,445,445,445,444,444,443,443,443,442,441,441,442,441,442,442,443,444,444,420,420,421,421,422,423,423,423,423,423,423,423,423,423,424,424,424,424,425,425,424,425,425,426,425,425,425,423,420,419,419,418,417,417,416,416,415,415,415,415,415,415,415,415,415,416,416,416,416,415,415,415,415,415,415,415,415,415,415,415,415,414,414,415,414,415,415,415,415,415,414,2047,2047,2047,2047,2047,2047,2047,2047,2047,2047,2047,2047,2047,2047,2047
2047,2047,2047,2047,2047,2047,2047,2047,2047,2047,2047,2047,2047,2047,2047,2047,2047,2047,2047,2047,2047,2047,2047,2047,559,559,559,559,558,2047,559,2047,2047,2047,2047,2047,2047,2047,2047,2047,2047,2047,546,546,545,545,544,544,544,544,544,544,545,544,545,545,546,545,546,546,546,547,546,545,546,545,545,544,544,545,545,545,545,545,545,546,546,545,545,546,546,546,546,545,546,546,546,546,546,546,547,547,547,548,549,549,549,550,550,550,551,551,551,552,552,552,553,553,553,554,555,555,556,557,558,558,559,560,559,560,562,564,565,567,567,568,568,567,2047,2047,2047,2047,2047,2047,2047,2047,537,535,535,533,533,517,517,517,516,515,513,512,511,509,509,508,507,506,505,505,504,503,502,501,501,500,499,498,497,496,496,496,495,493,492,491,490,488,488,487,486,483,482,482,481,480,480,480,479,479,479,479,478,478,477,478,477,477,477,476,476,476,476,476,476,476,477,476,477,477,477,477,477,476,476,476,475,474,474,474,473,471,470,467,466,465,464,464,463,463,463,463,463,462,462,462,462,462,461,462,462,462,462,462,461,460,459,458,456,455,454,452,451,451,450,449,449,447,447,446,444,444,443,443,443,443,444,444,445,445,445,444,444,445,444,444,444,444,444,444,445,445,446,446,446,446,446,446,447,447,448,448,447,446,447,445,443,444,444,444,445,445,448,448,447,448,447,446,445,446,446,446,446,445,445,445,445,445,445,446,446,446,446,446,445,445,444,444,444,444,2047,2047,446,447,448,448,448,449,449,449,450,450,450,450,451,451,451,451,452,452,452,452,452,452,452,452,453,452,453,452,452,453,453,453,453,2047,2047,2047,2047,2047,2047,456,456,457,457,456,456,455,455,455,455,455,455,456,456,456,456,457,455,455,456,458,459,458,458,459,459,460,460,460,461,462,462,463,463,464,466,467,468,468,468,469,469,470,470,470,471,472,472,472,474,475,475,475,475,475,475,475,476,475,476,478,479,480,482,482,483,484,483,484,485,486,487,488,491,492,493,492,494,494,495,496,496,497,498,498,499,500,502,503,503,502,501,499,497,496,495,495,494,493,492,491,491,491,491,490,489,489,466,467,467,467,467,467,466,466,466,465,465,465,465,465,464,465,465,465,466,466,468,468,469,470,470,471,2047,2047,2047,2047,2047,2047,453,454,453,453,452,452,452,451,451,452,452,452,453,453,453,453,453,452,452,451,451,450,450,450,449,2047,2047,444,444,444,443,443,443,443,443,442,442,442,442,441,441,441,441,441,441,443,444,420,421,421,421,421,423,423,423,423,423,423,423,422,422,423,423,423,423,424,424,425,424,424,424,425,425,424,423,420,420,419,418,417,417,416,416,415,415,414,415,415,415,415,415,415,415,416,415,416,415,415,415,415,415,415,415,415,414,414,415,414,414,413,413,413,413,414,414,414,415,415,414,2047,2047,2047,2047,2047,2047,2047,2047,2047,2047,2047,2047,2047,2047,2047
2047,2047,2047,2047,2047,2047,2047,2047,2047,2047,2047,2047,2047,2047,2047,2047,2047,2047,2047,2047,2047,2047,2047,560,559,558,558,558,557,558,558,2047,2047,2047,2047,2047,2047,2047,2047,2047,2047,2047,2047,545,545,544,544,543,543,544,543,544,544,544,545,545,546,546,546,546,546,547,547,546,546,546,547,546,545,546,546,546,545,545,545,545,545,545,545,545,545,546,546,545,545,546,546,546,546,547,547,547,547,548,548,549,549,550,550,551,551,551,551,552,552,552,553,553,553,554,555,554,556,557,558,558,559,560,560,561,563,564,565,567,568,568,568,568,2047,2047,2047,2047,2047,2047,2047,2047,537,535,535,533,514,514,517,517,515,515,513,512,510,509,509,508,507,506,505,505,504,503,502,502,501,500,499,498,497,496,496,496,494,492,491,491,489,487,487,486,485,483,481,481,481,480,480,480,480,480,479,479,479,478,478,479,478,478,477,477,477,477,477,476,476,477,477,476,477,477,477,477,477,477,476,475,475,474,473,473,472,471,470,467,466,465,464,463,463,463,463,462,462,462,461,461,461,461,460,461,461,461,462,462,461,460,460,458,456,454,452,451,451,450,449,449,448,447,446,445,444,444,443,443,443,443,443,444,444,444,444,444,444,444,444,444,444,444,444,444,445,446,446,446,446,446,446,446,447,447,448,448,447,446,447,446,444,444,444,444,445,445,445,445,447,447,447,446,446,446,446,446,446,445,444,445,445,445,446,446,446,446,446,446,444,444,443,443,443,444,445,445,446,447,447,448,448,448,448,449,449,449,449,450,450,450,450,451,451,452,452,452,452,452,452,452,452,452,453,453,453,453,453,453,453,2047,2047,2047,2047,2047,2047,456,456,456,456,455,455,455,455,455,455,455,455,455,455,455,455,456,455,455,456,459,459,458,459,459,459,460,460,460,462,462,462,463,464,464,466,467,468,469,469,470,470,471,471,471,471,472,472,472,473,474,474,475,475,475,475,476,476,476,476,478,479,480,482,483,484,483,485,485,486,487,487,489,492,493,494,493,494,495,495,496,497,497,499,499,499,501,503,503,503,503,502,500,498,496,496,495,494,493,493,492,491,491,491,491,490,489,489,489,467,467,467,467,467,466,466,466,465,465,465,465,465,466,466,465,466,466,469,469,469,470,470,471,2047,2047,2047,2047,2047,455,454,454,454,454,453,453,452,451,451,452,453,452,453,453,453,453,453,452,452,451,451,450,449,449,449,2047,444,444,444,442,442,443,442,442,442,442,442,442,441,441,441,441,441,441,443,444,444,422,420,421,423,423,424,424,424,423,423,423,422,422,422,422,422,423,423,423,424,424,423,423,423,425,425,426,426,420,419,419,418,417,416,416,415,415,414,414,414,414,414,414,414,414,415,416,415,415,415,415,415,415,415,415,415,414,414,414,414,414,413,412,412,412,412,412,412,413,414,414,413,412,412,412,412,2047,2047,2047,2047,2047,2047,2047,2047,2047,2047,2047
2047,2047,2047,2047,2047,2047,2047,2047,2047,2047,2047,2047,2047,2047,2047,2047,2047,2047,2047,2047,2047,2047,560,559,559,558,557,558,557,557,557,555,2047,2047,2047,2047,2047,2047,2047,2047,2047,2047,2047,545,544,544,543,543,543,543,543,544,544,544,545,546,546,546,546,547,547,547,547,547,547,546,548,547,546,546,546,546,546,546,545,546,545,545,545,545,545,546,546,545,546,546,546,546,546,547,547,547,547,548,548,549,549,550,550,551,551,551,551,552,552,552,553,553,553,554,555,554,556,557,558,558,559,561,560,561,563,564,565,566,568,568,568,568,569,2047,2047,2047,2047,2047,2047,2047,2047,2047,2047,2047,2047,515,517,517,516,515,513,512,510,509,508,507,507,506,505,504,504,503,502,501,501,499,499,497,497,496,496,495,494,492,491,490,488,487,485,485,485,482,481,481,480,480,480,480,479,479,479,479,478,478,478,479,478,478,478,478,478,477,477,477,477,477,477,477,477,477,477,477,477,476,476,475,475,474,473,473,472,471,470,467,466,465,464,463,463,463,462,462,462,461,460,460,461,460,460,461,461,461,462,462,461,460,460,458,456,454,452,451,451,450,449,449,448,447,446,445,444,444,443,443,443,443,443,443,443,443,444,444,444,444,443,443,444,443,444,444,445,445,446,445,446,446,446,447,447,447,448,448,447,446,447,446,445,445,444,445,446,446,445,445,446,446,446,446,446,446,446,446,446,445,444,445,445,445,446,446,446,446,446,446,444,443,443,443,443,443,444,444,445,447,447,448,447,448,448,448,449,449,449,449,449,449,450,450,451,452,451,452,452,452,452,452,452,452,453,452,452,453,452,453,2047,2047,2047,2047,2047,2047,2047,2047,456,456,456,455,455,455,455,455,455,455,455,455,455,455,456,455,455,454,458,459,459,458,458,459,459,460,460,461,462,463,463,463,464,465,466,467,467,469,469,470,471,471,471,472,472,472,472,473,473,475,475,475,475,476,475,476,477,477,478,479,481,481,482,483,484,485,485,485,486,487,489,490,492,493,494,493,494,495,495,496,497,498,499,499,501,502,504,504,504,503,503,501,499,497,496,495,494,494,493,493,492,492,491,491,490,490,489,489,468,468,468,468,468,467,466,466,465,465,465,465,465,466,466,466,466,466,469,469,469,470,470,471,2047,2047,2047,2047,2047,455,454,454,454,453,452,452,452,452,452,452,452,452,453,453,453,453,453,452,452,451,451,450,449,449,449,448,444,444,444,442,442,442,442,442,442,442,442,441,441,441,441,441,441,441,442,443,444,422,421,423,424,424,424,424,424,423,423,422,421,421,421,421,421,421,421,422,423,424,423,422,421,425,425,425,419,419,417,418,417,416,415,415,414,414,413,413,413,414,414,414,415,415,415,416,416,416,416,416,416,416,415,415,415,414,414,413,413,412,412,411,411,411,410,411,411,411,412,413,412,412,412,412,413,413,2047,2047,2047,2047,2047,2047,2047,2047,2047,2047
2047,2047,2047,2047,2047,2047,2047,2047,2047,2047,2047,2047,2047,2047,2047,2047,2047,2047,2047,2047,2047,562,560,559,558,558,557,557,555,555,555,554,2047,2047,2047,2047,2047,2047,2047,2047,2047,2047,2047,544,543,543,543,543,543,543,543,543,544,544,545,546,546,546,547,547,547,547,547,548,548,547,549,548,547,548,547,547,547,547,546,546,546,546,546,546,546,546,546,545,546,546,546,546,546,547,547,547,548,548,549,549,549,550,550,550,551,551,551,552,552,553,553,553,553,554,554,554,555,557,558,559,560,561,561,561,563,564,565,567,568,568,568,569,569,2047,2047,2047,2047,2047,2047,2047,2047,2047,2047,2047,516,516,516,516,515,514,513,511,510,509,508,507,507,506,505,504,503,502,501,501,500,499,498,497,497,495,495,495,493,491,490,490,488,487,485,485,485,482,481,480,480,479,479,480,479,479,479,479,479,479,479,479,479,479,479,479,478,478,478,477,478,477,477,477,477,477,477,477,476,476,476,475,475,474,474,473,472,471,470,467,465,464,464,463,463,462,462,462,461,461,460,460,460,460,460,460,460,461,462,462,461,461,460,459,457,455,452,451,451,450,449,449,448,447,446,445,444,444,443,443,443,443,443,443,443,443,443,443,443,443,443,443,443,443,443,443,444,445,445,445,444,445,445,447,447,447,448,449,446,446,446,446,445,445,445,445,446,445,445,445,446,447,447,446,446,446,446,446,445,445,443,445,445,445,446,446,446,446,446,445,444,443,443,442,442,442,444,444,445,446,447,447,447,447,447,447,448,448,448,448,448,449,449,450,450,451,451,451,452,452,452,452,452,452,452,452,452,453,452,453,2047,2047,2047,2047,2047,2047,2047,2047,456,456,456,455,455,455,455,455,455,455,455,455,455,455,456,455,455,455,455,459,459,458,458,459,459,459,460,461,462,462,462,462,463,464,464,468,468,469,469,470,471,471,471,472,472,473,473,473,474,475,475,475,476,476,476,477,477,477,478,479,481,482,482,483,484,485,486,486,487,487,489,491,493,494,494,494,495,495,495,497,498,499,500,500,502,503,505,504,504,503,503,501,500,498,498,496,495,494,494,493,493,492,492,491,491,491,491,491,469,468,468,468,468,468,467,466,466,465,465,465,465,466,466,466,466,467,469,469,469,470,470,2047,2047,2047,2047,2047,455,455,454,454,453,453,452,452,452,452,452,452,453,453,453,453,454,453,454,452,452,451,451,450,449,449,448,448,445,443,443,442,442,442,442,442,442,442,442,441,441,441,441,441,441,441,442,442,442,423,423,424,424,424,424,424,423,421,422,421,421,420,420,420,420,420,420,419,420,423,421,420,419,419,416,415,416,416,416,415,414,415,415,413,413,413,413,412,413,414,414,415,415,415,416,416,416,416,416,416,416,416,416,415,415,415,414,414,413,412,412,411,410,410,409,410,410,411,412,412,411,411,411,412,412,412,412,2047,2047,2047,2047,2047,2047,2047,2047,2047
2047,2047,2047,2047,2047,2047,2047,2047,2047,2047,2047,2047,2047,2047,2047,2047,2047,2047,2047,2047,2047,2047,560,559,558,557,556,556,554,554,555,553,2047,2047,2047,2047,2047,2047,2047,2047,2047,2047,2047,2047,543,543,543,543,543,543,543,543,543,543,544,545,546,546,546,547,547,547,548,548,549,549,549,549,548,548,548,548,548,548,547,547,547,547,546,546,546,546,546,546,546,546,546,546,546,546,548,548,548,549,549,549,549,550,550,551,551,551,552,553,553,553,553,554,554,554,554,554,555,557,558,560,561,562,561,562,563,565,565,567,568,568,568,568,569,2047,2047,2047,2047,2047,2047,2047,2047,2047,2047,2047,518,517,517,517,516,515,513,511,509,508,508,507,506,505,505,504,504,503,501,501,500,499,498,497,496,495,495,494,492,491,490,489,488,486,485,485,485,483,481,480,480,479,479,480,479,479,479,479,479,479,479,479,478,479,479,479,479,478,478,478,478,477,477,476,476,477,477,477,476,476,476,476,475,474,473,472,471,470,470,467,465,464,463,463,462,462,462,461,461,460,460,460,460,460,460,460,460,461,461,461,461,460,460,458,457,454,452,452,451,450,449,448,447,447,446,446,445,444,443,443,443,443,443,443,442,442,442,443,443,443,442,442,442,442,442,442,443,444,444,444,443,445,444,446,446,446,447,448,447,448,448,448,448,447,448,447,448,448,448,448,2047,446,446,444,444,446,446,445,445,444,444,445,445,445,445,446,446,446,446,445,444,444,444,444,444,444,445,446,446,447,448,448,448,448,448,449,449,449,448,448,448,448,449,450,451,452,452,452,452,452,452,452,452,452,452,453,453,453,453,2047,2047,2047,2047,2047,2047,2047,2047,2047,2047,2047,455,455,455,455,455,455,456,456,455,455,455,456,456,456,457,458,459,459,459,460,460,461,461,462,463,464,464,464,465,465,466,466,467,469,470,471,471,472,472,473,473,474,475,476,475,476,476,477,478,478,478,479,478,478,479,479,480,482,483,483,484,485,487,487,488,488,490,491,493,494,494,495,495,496,496,499,499,500,500,501,502,503,504,505,506,506,506,506,505,503,501,499,498,497,496,496,495,494,494,493,493,493,492,493,493,470,470,470,470,470,469,469,469,469,468,469,468,468,468,468,469,469,470,470,471,472,471,474,2047,2047,2047,2047,2047,2047,455,455,454,454,454,454,453,454,454,454,455,455,455,455,456,456,456,455,455,453,452,452,451,451,451,450,449,448,445,444,444,444,444,443,443,443,443,442,442,442,442,444,444,443,443,2047,443,2047,422,422,423,423,423,423,424,423,420,420,420,420,420,420,420,420,421,421,421,421,421,421,421,415,415,414,414,414,416,416,416,415,414,414,415,415,415,415,415,415,415,416,416,416,417,416,418,418,418,418,417,417,416,416,415,415,414,414,413,413,413,412,413,412,412,412,412,413,413,414,414,415,414,414,415,415,415,415,415,415,2047,2047,2047,2047,2047,2047,2047,2047
2047,2047,2047,2047,2047,2047,2047,2047,2047,2047,2047,2047,2047,2047,2047,2047,2047,2047,2047,2047,2047,2047,559,559,559,558,558,555,555,555,554,553,553,552,552,551,551,550,550,549,549,549,547,547,546,546,546,545,545,545,545,546,545,545,545,546,546,547,547,548,549,549,550,550,550,550,551,550,549,550,550,550,550,551,552,551,551,550,550,549,549,548,548,547,547,548,548,548,548,549,549,549,549,550,550,550,550,550,550,551,552,552,553,554,554,554,554,555,555,555,556,555,556,558,560,561,562,562,562,563,564,565,566,567,568,569,569,570,571,2047,2047,2047,2047,2047,2047,2047,2047,2047,2047,2047,2047,2047,520,520,519,517,514,512,511,509,509,508,508,507,506,505,504,504,502,502,500,498,498,497,496,494,494,493,490,488,489,488,487,485,484,483,483,483,482,482,481,481,481,481,481,480,480,480,480,480,480,480,479,479,479,479,479,479,479,479,479,479,479,478,478,478,478,478,477,477,476,476,476,475,474,474,472,471,470,465,464,463,463,462,462,462,461,461,460,460,460,460,460,460,460,460,460,461,461,461,459,458,458,455,455,454,453,452,451,450,449,448,447,447,446,445,445,444,443,443,443,442,442,442,441,441,442,442,442,442,442,442,443,442,442,442,443,443,443,444,443,445,444,444,444,444,445,446,446,447,448,448,449,448,448,448,448,2047,2047,2047,2047,2047,446,445,446,447,446,446,445,445,445,446,445,445,445,446,446,446,446,445,444,444,444,444,444,444,445,445,445,446,447,448,448,448,448,448,449,448,447,448,447,448,449,449,451,452,452,452,452,452,452,452,452,452,453,453,453,453,453,453,452,2047,2047,2047,2047,2047,2047,2047,2047,455,455,453,453,453,454,456,456,455,455,455,455,456,456,456,457,458,459,459,459,460,460,460,460,461,463,464,464,465,466,467,467,467,467,469,470,471,471,472,473,473,473,474,475,476,475,476,476,477,478,478,478,479,478,479,479,479,481,482,482,483,484,485,487,487,488,489,490,492,493,494,494,495,496,496,497,498,499,501,501,501,503,504,505,506,506,507,507,506,505,504,502,501,499,498,497,496,496,495,494,494,493,493,493,493,470,470,471,470,470,470,469,469,469,469,468,469,469,468,468,469,469,470,471,470,470,472,2047,2047,2047,2047,2047,2047,2047,456,455,455,454,454,454,454,454,454,454,455,455,456,456,456,456,456,456,455,454,453,452,451,451,450,450,450,449,448,445,444,444,444,444,443,443,443,443,442,442,442,441,443,443,443,443,443,2047,423,423,422,422,423,421,421,423,420,419,419,419,418,419,419,419,420,420,420,420,420,419,417,416,415,415,414,414,414,415,415,415,414,414,414,414,414,414,415,415,415,415,416,416,417,417,418,418,418,418,418,418,417,416,416,414,413,413,413,412,412,412,411,412,411,412,412,411,412,412,413,414,414,414,414,415,415,415,414,414,415,2047,2047,2047,2047,2047,2047,2047,2047
2047,2047,2047,2047,2047,2047,2047,2047,2047,2047,2047,2047,563,2047,2047,2047,2047,2047,2047,2047,2047,2047,2047,552,552,555,555,555,555,554,553,552,552,551,551,550,550,550,549,548,548,548,548,546,546,546,546,546,545,545,545,545,545,545,545,545,546,547,547,548,549,549,550,550,550,550,550,550,550,550,550,550,550,552,552,552,552,552,552,552,551,550,550,549,549,550,549,549,549,550,550,550,550,550,550,550,550,550,551,551,552,552,553,554,554,554,554,555,555,555,556,555,556,558,559,561,562,563,562,563,564,565,566,567,568,569,569,570,571,570,2047,2047,2047,2047,2047,2047,2047,2047,2047,2047,2047,521,522,520,519,517,515,512,511,509,509,508,507,506,505,505,504,504,503,501,499,498,497,496,495,494,493,492,489,488,488,488,487,485,484,484,483,483,482,482,481,481,481,481,481,480,480,480,480,480,480,480,479,479,479,479,479,478,479,478,479,478,478,477,477,477,477,477,477,476,476,476,476,475,474,474,473,471,470,470,464,463,462,462,461,461,461,460,460,460,459,459,460,460,460,460,460,460,460,460,459,458,458,455,455,453,452,452,451,450,449,448,447,447,446,445,444,443,443,443,442,442,441,441,441,440,440,441,440,442,441,441,442,442,442,442,442,443,443,443,443,444,443,443,443,443,443,444,445,446,447,447,448,447,447,447,448,2047,2047,2047,2047,2047,447,447,447,447,446,446,445,445,445,445,445,445,445,445,445,445,445,444,444,443,443,443,444,444,445,445,445,446,446,447,447,447,446,445,448,447,446,446,446,447,448,449,449,451,451,452,452,452,452,452,452,452,452,452,453,453,453,452,452,452,2047,2047,2047,2047,453,454,454,454,454,453,454,453,454,456,456,456,456,456,456,456,457,457,458,459,459,459,459,460,460,461,460,462,463,464,465,466,466,467,467,467,467,469,470,470,471,472,473,473,473,475,475,476,476,476,477,477,478,478,478,479,478,478,479,479,481,482,483,483,484,485,487,487,488,489,491,493,494,494,495,496,496,497,498,499,499,501,501,502,503,504,505,506,507,507,507,507,506,504,503,502,500,499,498,497,497,495,495,494,494,494,494,470,470,470,471,471,470,470,470,469,469,469,469,469,469,469,469,469,469,470,471,471,471,472,2047,2047,2047,2047,2047,2047,2047,457,456,455,454,454,454,454,454,454,455,456,456,456,456,456,457,457,456,456,455,453,452,451,450,450,450,449,446,445,445,444,444,444,443,443,443,443,442,442,441,442,441,442,442,2047,422,2047,2047,2047,423,422,422,422,421,420,420,419,418,418,418,417,418,418,418,418,420,418,417,417,416,416,415,414,413,414,413,413,413,414,414,414,414,413,414,415,415,415,415,415,416,416,416,417,418,418,418,418,418,418,417,416,412,412,412,412,412,412,412,412,412,411,411,411,411,411,411,411,411,412,412,413,413,413,414,414,414,414,414,415,2047,2047,2047,2047,2047,2047,2047,2047
2047,2047,2047,2047,2047,2047,2047,2047,2047,2047,563,2047,560,558,557,556,555,555,2047,2047,2047,2047,2047,2047,552,552,552,552,552,552,552,552,552,551,551,550,550,550,549,548,548,2047,2047,2047,546,546,546,546,545,545,545,545,544,545,544,545,546,547,547,547,548,549,550,550,550,550,550,550,550,551,551,551,552,552,553,553,553,553,553,553,553,552,551,551,551,551,550,550,550,550,550,550,551,551,551,551,552,551,552,552,553,553,554,554,555,555,555,555,556,556,556,556,557,558,560,562,563,563,563,564,564,565,566,567,568,568,569,569,570,569,2047,2047,2047,2047,2047,2047,2047,2047,2047,2047,524,522,522,521,520,517,515,512,511,510,509,508,507,506,505,505,504,504,502,501,498,497,497,496,495,493,493,491,489,488,488,487,487,485,484,483,483,483,483,483,482,482,482,482,481,480,480,480,480,480,480,480,479,479,479,479,479,478,478,477,478,477,477,477,476,476,476,477,476,476,476,476,476,475,474,473,472,471,470,465,464,463,462,461,461,461,460,460,459,459,459,459,459,459,459,459,460,460,460,460,458,458,456,455,454,453,452,452,451,450,449,448,447,446,445,444,444,443,443,443,442,441,441,441,441,440,440,440,440,441,441,441,441,441,441,441,442,442,443,442,443,444,443,443,443,443,443,444,444,444,447,447,448,447,446,448,448,2047,448,448,447,2047,446,446,446,446,446,446,445,445,445,446,445,445,445,445,445,445,444,444,443,2047,2047,2047,2047,2047,2047,2047,2047,2047,446,446,446,446,445,445,446,445,445,445,445,446,447,449,449,451,451,452,452,452,452,452,452,452,452,452,453,454,453,453,452,452,453,453,453,452,453,453,454,454,454,452,453,453,454,456,456,455,456,456,456,456,457,457,458,459,459,459,459,460,460,460,460,462,463,463,464,465,466,466,466,467,467,468,469,469,470,471,473,473,474,475,476,476,476,476,477,477,478,479,479,480,479,479,480,481,481,482,483,483,484,486,487,488,488,489,491,493,494,495,495,496,497,497,498,500,500,501,501,503,505,505,506,506,507,508,508,507,506,505,504,503,502,500,498,498,496,495,495,495,495,495,495,470,470,470,471,471,470,470,470,470,470,470,470,470,470,469,469,469,470,470,471,471,471,471,2047,2047,2047,2047,2047,2047,2047,455,454,454,454,454,454,454,454,455,455,456,456,456,457,456,456,456,456,455,455,452,451,451,450,449,449,449,445,445,444,444,444,443,443,443,442,442,442,442,441,441,441,441,2047,2047,2047,422,2047,422,422,422,421,421,421,420,420,418,418,417,417,417,417,417,417,417,417,417,416,416,415,415,414,413,413,413,413,413,413,413,413,414,414,414,415,415,415,416,416,416,416,417,417,418,418,418,418,418,418,417,416,412,412,412,412,412,411,412,412,411,411,411,411,411,411,411,411,411,411,411,412,412,411,412,413,414,414,414,414,415,2047,2047,2047,2047,2047,2047,2047,2047
2047,2047,2047,2047,2047,2047,2047,2047,2047,561,561,560,559,558,557,556,555,554,2047,2047,2047,2047,551,552,552,552,552,552,552,552,551,551,551,550,550,550,549,549,549,548,548,547,547,547,546,546,546,546,545,545,545,544,544,544,544,544,545,546,546,547,548,548,549,549,549,550,550,550,550,551,552,552,553,553,553,553,553,553,553,554,554,553,553,553,553,552,552,552,551,552,552,552,552,552,552,552,553,552,553,553,553,553,554,555,556,555,556,556,556,556,557,557,558,560,562,563,563,564,563,564,564,565,566,567,568,568,569,569,570,569,2047,2047,2047,2047,2047,2047,2047,2047,2047,528,525,523,522,521,520,517,515,513,512,510,509,508,507,506,505,504,504,503,501,500,498,497,497,496,495,493,492,491,488,488,487,487,487,486,485,484,484,483,483,483,482,483,482,482,481,481,481,480,480,480,480,480,479,479,479,479,479,478,478,477,477,477,477,476,476,476,476,477,477,476,476,476,475,475,474,473,472,470,469,466,464,463,462,461,460,460,460,459,459,459,459,459,459,459,459,459,460,460,459,459,458,457,457,455,454,453,452,451,450,450,448,447,446,446,445,444,443,443,443,442,442,441,441,441,441,440,440,440,440,441,440,440,441,441,441,441,441,441,442,442,442,442,442,442,442,442,443,443,443,444,445,446,447,447,446,448,447,446,448,448,447,447,447,446,446,446,446,445,445,445,446,446,445,445,445,445,445,444,444,444,2047,2047,2047,2047,2047,2047,2047,2047,2047,2047,446,446,446,446,445,444,445,445,444,445,445,445,447,448,450,451,451,451,451,451,451,451,451,452,452,452,453,454,454,453,452,452,452,453,452,452,452,453,453,454,454,452,453,453,454,455,456,455,456,456,456,456,456,456,458,458,459,459,459,460,460,460,460,461,462,463,464,465,466,467,467,467,468,469,469,469,470,471,473,473,474,475,476,476,476,477,477,478,478,479,479,480,479,480,480,481,482,482,483,483,484,486,487,488,489,490,491,493,494,495,495,496,497,498,499,501,501,502,502,503,505,506,506,507,508,510,510,510,509,507,507,505,502,501,499,499,498,497,497,496,495,495,498,472,471,471,471,471,470,470,470,470,470,470,470,470,470,469,469,470,470,471,471,471,471,471,2047,2047,2047,2047,2047,2047,456,456,455,454,454,454,454,454,455,455,456,456,457,457,457,457,457,457,456,456,455,452,451,450,449,449,449,448,445,444,444,444,444,444,443,443,442,443,442,442,441,441,441,441,2047,2047,421,422,422,422,422,422,421,421,421,420,420,418,417,417,417,417,417,417,417,417,417,416,417,417,416,414,414,413,413,413,413,413,413,413,413,413,413,414,415,415,415,416,416,417,417,417,417,418,418,418,417,416,417,415,413,412,412,412,411,411,411,411,411,410,410,410,410,411,410,411,410,411,411,411,411,412,411,412,413,414,414,414,414,415,2047,2047,2047,2047,2047,2047,2047,2047
2047,2047,2047,2047,2047,2047,2047,2047,561,561,560,559,559,558,556,555,554,553,552,552,551,551,551,551,550,551,551,551,551,551,551,551,551,550,550,549,548,548,547,547,547,547,547,547,547,547,547,547,546,545,545,545,544,544,544,543,544,545,546,546,547,548,549,548,549,549,550,550,550,550,552,552,553,553,553,553,553,553,553,554,554,554,553,554,553,553,553,553,553,553,553,553,553,553,553,553,553,553,553,554,554,554,554,555,556,556,556,556,556,557,557,557,559,561,562,563,563,563,563,564,564,565,566,567,568,568,569,569,570,570,2047,2047,2047,2047,2047,2047,2047,2047,2047,2047,2047,521,521,520,516,516,514,512,512,511,510,508,507,505,505,504,504,503,501,500,498,497,496,496,495,493,492,491,489,488,488,487,487,486,485,484,484,484,483,483,483,483,483,482,481,481,481,480,480,480,479,479,479,479,479,479,479,478,478,477,477,477,477,476,476,476,476,476,476,476,476,476,475,475,474,473,471,469,468,465,464,462,462,461,460,460,460,459,459,459,459,459,459,459,459,459,459,459,459,459,457,457,455,455,454,453,452,451,450,449,448,447,446,445,444,444,443,443,443,442,442,441,441,441,440,440,440,440,439,441,440,439,440,441,441,441,441,441,441,442,442,442,442,442,442,442,442,443,443,443,445,446,446,446,446,447,447,446,447,448,447,447,447,446,447,447,446,445,445,446,446,445,445,445,445,445,445,444,444,2047,2047,2047,2047,2047,2047,2047,2047,2047,2047,2047,445,445,445,446,445,444,446,445,445,445,445,445,447,447,448,449,450,451,451,451,451,451,451,452,452,452,453,454,453,453,452,452,452,453,452,452,452,453,453,454,454,452,453,453,454,455,455,455,456,456,456,456,456,456,458,458,458,458,458,459,460,460,460,461,462,463,464,465,466,467,467,468,468,469,469,469,469,471,472,472,473,475,476,476,476,477,477,478,479,479,480,480,479,480,480,481,482,482,483,484,485,486,487,488,490,491,491,493,494,495,496,497,498,498,499,502,502,502,503,504,505,505,506,507,509,510,511,511,510,507,508,506,503,502,500,500,499,498,497,497,497,498,498,472,472,472,472,471,471,470,470,470,470,470,470,470,470,470,470,470,471,471,472,471,471,471,2047,2047,2047,2047,458,457,457,456,455,454,454,454,454,455,455,456,457,457,457,457,457,457,457,457,456,455,455,452,450,449,448,448,448,445,444,444,444,444,444,444,443,443,442,443,442,442,441,441,440,2047,422,422,421,422,422,422,422,421,421,420,420,419,418,417,417,417,417,416,417,417,416,416,416,416,415,416,414,414,413,412,412,412,412,412,412,412,412,413,413,414,414,415,416,416,416,417,417,417,417,417,417,417,416,415,415,413,412,412,411,411,411,411,411,411,411,410,410,410,410,410,410,410,410,411,411,411,411,411,412,412,413,413,413,414,414,415,2047,2047,2047,2047,2047,2047,2047,2047
2047,2047,2047,2047,2047,2047,2047,563,562,561,560,559,559,558,557,556,554,553,552,552,551,551,551,551,550,550,550,550,550,550,551,551,551,550,549,548,547,547,547,546,547,547,547,547,547,547,547,547,546,545,545,544,544,544,543,543,543,545,545,546,547,547,548,548,549,549,550,549,550,550,551,552,553,553,553,553,553,554,554,554,554,554,554,554,554,554,554,554,555,554,554,554,554,554,554,554,554,554,554,554,554,555,555,556,556,556,556,556,557,557,557,558,560,561,563,563,563,563,563,564,564,566,567,568,568,569,570,570,571,571,2047,2047,2047,2047,2047,2047,2047,2047,2047,2047,524,522,521,520,519,516,514,513,512,511,510,508,507,506,505,504,503,503,501,500,498,496,496,495,494,492,492,491,489,488,488,487,487,486,485,484,484,484,483,483,483,483,483,483,482,481,481,480,480,480,480,479,479,479,479,479,479,478,478,477,477,477,477,476,476,476,476,476,476,476,475,475,475,474,473,472,471,468,467,464,463,461,461,460,460,460,460,459,459,459,459,459,459,459,459,459,459,459,458,458,457,456,456,455,454,453,452,451,450,448,447,446,446,445,444,443,443,443,442,442,441,441,440,440,440,439,439,439,439,440,439,439,440,440,440,440,440,441,441,441,441,442,442,442,442,442,443,443,443,444,445,446,447,446,446,446,446,446,447,447,446,447,447,446,446,447,446,445,445,445,446,445,445,445,445,445,445,445,444,2047,2047,2047,2047,2047,2047,2047,2047,2047,2047,2047,446,446,446,446,446,447,448,448,447,447,448,447,448,448,449,449,449,451,451,451,451,452,452,452,453,453,454,453,453,453,453,453,454,454,453,453,453,452,453,454,454,453,454,455,455,456,455,456,456,456,456,456,456,456,456,2047,456,456,462,2047,462,463,463,464,464,465,465,467,467,468,468,469,469,471,471,471,472,472,473,474,474,476,478,478,477,479,479,480,480,480,481,482,481,481,482,482,482,483,483,484,485,487,489,490,491,492,493,494,496,497,498,499,499,501,501,503,503,504,505,506,506,506,507,509,511,512,512,513,512,512,2047,2047,2047,2047,2047,2047,2047,2047,2047,2047,2047,2047,2047,2047,474,473,474,473,473,472,472,471,471,471,471,472,472,472,472,472,473,473,473,472,471,471,459,458,458,458,458,458,457,457,457,456,456,456,457,457,457,457,458,458,458,458,458,458,458,457,457,456,456,453,451,449,448,448,446,446,445,445,445,444,445,445,445,445,445,445,445,445,2047,426,2047,2047,426,426,425,425,424,424,424,423,422,422,421,420,419,419,419,419,419,419,419,419,419,419,418,418,417,416,416,415,415,414,415,414,414,414,414,415,415,415,415,416,416,416,416,417,418,418,418,418,418,418,417,416,416,414,414,414,413,412,412,412,412,412,412,411,411,411,411,411,411,411,411,412,412,412,412,413,413,413,413,414,415,415,414,414,415,416,2047,2047,2047,2047,2047,2047,2047,2047
2047,2047,2047,2047,2047,2047,2047,2047,2047,565,564,563,563,562,562,562,559,556,555,554,554,553,553,553,553,553,554,554,554,554,553,553,552,551,551,550,550,550,550,551,548,548,548,548,547,547,547,547,547,547,547,547,547,547,546,546,546,547,547,547,547,548,549,549,550,550,551,550,550,551,551,553,554,554,555,555,555,556,556,556,556,556,556,556,556,555,555,554,556,555,555,555,555,555,555,556,555,555,556,555,556,556,557,557,558,557,557,557,558,558,558,558,559,562,563,564,564,565,564,565,565,566,567,568,568,569,569,571,571,572,573,2047,2047,2047,2047,2047,2047,2047,2047,2047,2047,2047,520,519,517,516,515,513,511,510,509,508,507,506,505,504,503,501,500,499,498,497,496,496,495,494,493,492,491,489,488,487,487,486,486,484,484,484,484,484,483,484,483,483,483,482,482,481,481,480,480,480,479,480,479,479,479,479,479,478,478,477,477,476,476,476,475,475,476,475,475,475,474,473,472,471,470,470,465,462,462,460,460,460,459,459,459,459,459,459,459,459,459,459,459,459,459,459,459,459,458,458,458,452,452,452,451,450,449,449,448,447,446,446,445,444,443,443,442,442,441,441,440,440,439,439,439,439,439,439,438,438,438,440,440,441,440,441,441,441,441,442,442,442,442,442,443,444,444,444,445,445,446,446,446,447,446,446,447,447,447,446,447,446,446,447,446,446,446,446,446,446,446,446,447,447,448,447,446,447,445,2047,2047,2047,2047,2047,2047,2047,2047,446,446,446,446,446,446,446,447,447,447,446,448,447,448,448,449,449,449,450,450,451,451,451,451,451,451,451,452,453,453,453,453,453,453,453,453,453,453,453,454,455,455,454,454,454,455,455,455,456,456,456,456,456,456,456,456,456,2047,2047,2047,2047,463,463,463,464,465,465,466,467,468,468,468,469,470,471,471,471,472,473,473,474,474,475,477,478,477,479,480,480,480,480,481,482,481,481,482,482,483,483,484,484,486,488,489,491,491,492,493,494,496,497,498,500,501,502,502,503,504,505,506,507,507,507,509,511,511,513,513,513,512,512,2047,2047,2047,2047,2047,2047,2047,2047,2047,2047,2047,2047,2047,474,473,473,473,473,472,472,472,471,471,472,472,472,473,473,473,473,474,473,473,472,472,472,459,459,459,459,458,458,458,457,457,456,456,457,457,457,458,458,458,459,459,459,458,458,457,457,457,456,455,452,450,449,448,448,447,446,445,445,445,444,445,444,445,445,445,2047,2047,2047,426,2047,425,425,426,425,424,424,423,423,423,422,422,421,420,419,419,418,417,417,418,417,417,417,418,418,417,417,416,416,415,415,414,414,414,414,414,414,414,415,415,415,415,416,416,416,416,416,418,418,417,417,417,417,416,415,414,413,413,413,412,412,412,411,411,412,412,411,410,410,410,411,411,411,412,412,412,412,412,412,413,413,413,413,414,415,414,414,414,415,2047,2047,2047,2047,2047,2047,2047,2047
2047,2047,2047,2047,2047,2047,567,565,565,565,564,563,562,562,562,561,560,557,556,555,554,553,553,553,553,553,553,553,552,552,552,552,551,551,550,550,550,550,548,548,547,547,547,547,547,547,547,547,548,548,548,547,547,547,546,546,546,547,546,547,547,547,548,548,549,549,550,550,550,551,551,553,553,554,554,555,555,555,556,556,556,556,556,557,557,557,557,556,557,557,557,557,557,557,557,557,556,557,557,557,557,557,558,558,558,558,558,558,558,558,558,558,559,562,564,564,565,565,564,565,565,566,567,568,569,569,570,571,571,572,573,2047,2047,2047,2047,2047,2047,2047,2047,2047,2047,2047,518,518,517,516,514,513,512,510,509,508,507,506,505,504,503,501,500,499,498,497,496,496,495,494,493,492,490,489,488,487,487,486,486,485,484,484,484,484,484,484,484,484,483,483,482,481,481,480,480,480,480,480,480,479,479,478,478,478,478,477,477,476,476,476,475,475,475,475,475,475,474,473,472,472,470,465,464,462,461,459,459,459,459,459,459,459,459,459,459,459,459,459,459,459,458,458,458,458,458,458,2047,2047,452,452,452,451,449,449,448,447,446,446,444,444,443,443,442,442,441,440,440,440,439,439,439,439,438,438,437,437,438,439,439,440,439,440,440,440,440,441,441,441,441,442,442,443,443,444,445,445,446,446,446,446,446,446,446,446,446,446,447,446,446,447,446,446,446,446,446,446,446,446,446,447,447,446,446,446,445,2047,2047,2047,2047,2047,2047,2047,2047,446,446,445,445,445,446,446,446,446,446,446,447,447,447,447,448,449,449,449,448,448,448,448,2047,450,453,453,2047,453,453,453,453,453,453,453,454,454,453,453,454,455,455,454,454,454,455,455,455,456,456,456,456,456,456,456,456,2047,2047,2047,2047,2047,463,463,463,464,464,465,466,467,468,468,468,469,470,471,471,471,472,472,473,474,473,475,477,477,477,479,480,480,480,481,481,482,481,481,482,482,483,483,484,484,486,487,489,490,491,492,493,495,497,498,500,501,502,502,503,504,505,506,507,507,507,508,509,511,513,513,513,513,513,513,511,511,2047,2047,2047,2047,2047,2047,2047,2047,2047,2047,2047,473,473,473,473,473,472,472,472,471,471,472,472,473,473,474,474,474,474,473,473,472,472,462,460,460,460,459,459,458,458,457,457,457,457,457,457,457,458,458,459,460,459,459,458,458,457,456,456,454,453,450,449,448,447,447,446,446,445,445,445,444,445,445,445,445,2047,427,2047,2047,426,426,425,425,425,424,424,423,422,423,422,421,421,421,420,418,418,417,417,417,417,417,417,417,417,417,417,417,416,416,416,415,414,414,414,413,413,413,414,415,415,416,415,416,416,416,416,416,416,416,416,416,416,415,415,414,413,413,412,412,412,412,412,411,411,412,412,411,410,410,410,411,411,411,412,412,412,413,413,413,413,413,412,413,414,414,414,414,414,415,2047,2047,2047,2047,2047,2047,2047,2047
2047,2047,2047,2047,2047,567,567,565,565,565,564,563,563,562,562,561,559,557,556,555,554,553,553,553,553,553,552,552,552,552,552,551,551,550,550,550,550,550,547,547,547,547,547,547,547,547,547,548,548,548,548,548,547,547,546,546,546,546,546,547,546,547,547,547,547,548,550,550,550,551,551,553,553,554,554,554,555,556,556,557,557,557,557,557,557,557,557,557,558,557,558,558,558,558,558,558,558,558,558,557,557,558,558,558,558,558,558,558,558,558,558,558,560,562,564,564,564,565,564,565,565,566,567,568,569,569,570,571,572,573,2047,2047,2047,2047,2047,2047,2047,2047,528,527,2047,522,520,518,517,516,515,513,512,510,509,508,507,505,504,503,502,501,500,499,498,497,496,496,495,493,492,492,490,489,488,487,487,487,486,485,484,485,484,484,484,484,483,483,483,482,482,481,482,480,481,480,480,480,480,479,479,478,478,478,477,477,477,476,476,476,475,475,475,475,475,474,474,473,472,471,469,465,464,462,461,459,459,459,459,459,459,459,459,459,459,459,459,459,458,458,458,458,458,458,458,456,455,454,453,453,452,451,450,449,448,447,446,445,444,444,443,442,442,441,440,440,439,439,439,439,439,438,438,438,437,437,437,438,438,438,438,439,439,439,439,440,441,441,441,441,442,442,443,443,444,445,445,446,446,446,446,446,446,446,447,447,447,446,446,447,446,446,446,446,446,446,446,446,446,446,447,446,446,446,445,2047,2047,2047,2047,2047,2047,2047,446,446,446,445,445,445,445,446,446,446,446,446,447,447,447,448,449,449,449,450,449,449,450,450,450,2047,2047,2047,453,453,453,453,452,452,452,452,453,453,453,453,454,455,455,454,454,455,455,455,455,456,456,456,456,456,456,456,457,2047,458,458,2047,463,463,463,464,464,464,464,465,466,467,467,468,468,469,470,471,471,472,472,473,474,473,474,477,477,478,479,480,481,481,481,482,482,482,482,482,482,483,483,484,485,487,488,490,490,491,492,494,496,498,499,501,502,502,503,504,505,506,507,507,508,508,508,509,512,512,513,513,514,513,513,511,511,2047,2047,2047,2047,2047,2047,2047,2047,2047,2047,2047,2047,474,473,473,473,472,472,472,472,472,473,473,473,474,474,474,474,474,474,473,472,472,462,462,460,460,459,458,458,458,457,457,457,457,457,458,458,459,459,460,461,460,459,458,458,457,455,455,454,452,450,449,448,447,447,446,446,445,445,445,445,445,445,445,445,2047,427,427,426,426,425,424,424,424,423,423,422,422,422,421,421,419,418,418,417,417,417,417,417,417,417,417,417,417,417,417,417,416,416,416,415,414,414,414,414,414,414,415,415,415,416,415,415,415,415,415,415,414,415,415,415,415,414,413,413,412,412,411,411,411,412,411,411,411,411,411,411,410,409,410,411,411,411,412,412,412,413,413,413,413,414,412,413,414,413,413,414,414,415,2047,2047,2047,2047,2047,2047,2047,2047
2047,2047,2047,2047,567,567,566,565,564,564,564,563,563,562,562,562,560,557,556,555,554,553,553,553,553,552,552,552,552,552,552,551,551,551,550,550,550,548,547,547,547,547,546,546,546,546,546,547,546,549,549,2047,548,548,547,547,547,546,546,547,546,546,546,547,547,548,549,549,550,550,550,550,553,553,553,554,555,555,556,557,557,557,557,557,557,558,558,558,558,558,558,559,559,559,559,559,559,559,559,558,558,558,559,559,559,558,558,558,558,559,559,559,561,563,564,565,564,565,564,565,565,566,567,568,568,569,569,570,571,2047,2047,2047,2047,2047,2047,2047,2047,529,528,527,525,521,520,518,517,516,515,513,511,509,508,508,506,505,504,503,502,501,500,499,498,497,496,495,494,493,492,492,490,489,488,487,487,486,486,485,485,484,484,484,484,484,484,483,483,483,482,482,482,481,481,480,480,480,480,479,479,479,479,479,478,478,478,477,477,476,475,475,475,475,475,474,473,472,470,469,467,464,464,461,461,459,459,459,459,459,459,459,459,459,459,459,459,458,458,458,458,458,457,458,456,456,455,454,454,453,452,451,450,449,447,447,446,445,444,444,443,442,441,441,440,440,439,439,439,439,439,438,438,438,436,437,437,437,438,437,438,438,438,438,438,439,439,440,440,441,441,441,442,442,444,445,446,446,446,446,446,446,446,446,446,446,447,446,447,447,447,447,447,447,446,446,446,446,447,447,447,446,446,446,445,443,443,2047,2047,2047,445,446,446,446,445,445,445,445,445,446,446,446,445,445,446,447,447,446,446,449,449,449,450,450,450,449,449,449,2047,2047,2047,452,452,452,452,452,452,452,453,453,453,453,455,456,456,454,455,455,455,455,455,456,456,456,456,457,456,457,458,458,458,458,2047,2047,463,463,464,464,465,465,466,466,467,468,468,469,469,470,471,471,472,472,473,473,473,473,476,478,478,479,480,481,481,481,482,483,482,482,482,482,483,483,484,485,487,488,490,490,491,492,495,498,499,500,502,502,503,503,504,506,506,507,507,508,508,2047,2047,2047,2047,2047,2047,2047,2047,514,512,511,2047,2047,2047,2047,2047,2047,2047,2047,2047,2047,2047,2047,474,474,473,473,472,473,472,472,472,473,473,474,474,475,474,474,474,473,473,473,465,465,462,460,459,459,458,458,458,457,457,457,457,458,458,458,460,460,461,461,461,460,458,458,456,455,454,453,452,449,449,448,447,447,446,446,445,445,445,445,445,445,2047,427,2047,427,427,426,425,424,422,424,423,421,421,422,421,420,421,419,418,418,417,417,417,417,416,417,417,417,417,416,417,417,417,416,416,416,416,415,414,414,415,414,415,415,416,416,416,416,415,416,415,415,415,414,413,415,415,414,414,413,413,412,412,412,411,411,411,411,411,411,411,411,411,410,409,409,409,411,411,411,411,411,412,412,412,412,413,412,411,413,413,413,413,413,413,414,2047,2047,2047,2047,2047,2047,2047,2047
2047,2047,2047,2047,567,566,566,565,564,565,564,563,563,563,562,561,559,558,556,555,555,554,553,553,553,552,552,552,552,552,551,551,551,550,550,550,549,548,547,547,547,546,546,546,546,546,546,546,547,548,548,2047,548,548,547,547,547,547,546,546,546,546,546,546,547,547,548,548,549,548,549,549,551,551,552,553,555,555,556,557,557,557,557,558,558,558,558,558,559,558,559,559,560,560,560,560,560,560,560,559,559,558,559,559,559,558,558,558,559,559,560,560,562,564,564,565,564,565,564,565,565,566,567,568,569,569,570,572,573,2047,2047,2047,2047,2047,2047,2047,2047,529,528,527,525,521,519,518,517,516,514,512,511,510,509,508,506,505,504,502,502,501,500,499,498,497,496,495,494,493,492,492,490,489,488,487,487,486,486,486,484,485,484,484,484,484,484,483,483,483,482,482,482,481,481,480,480,480,480,479,479,479,479,479,479,478,478,478,478,476,475,475,475,475,474,474,473,471,469,467,465,463,463,461,460,459,459,459,458,459,459,458,458,459,458,458,458,458,458,458,457,457,457,457,455,455,455,454,453,453,452,450,449,448,447,446,446,445,444,443,443,441,440,440,439,439,439,439,439,439,438,438,438,438,436,437,437,437,437,437,437,437,437,437,438,438,438,439,439,440,440,441,441,442,444,445,446,446,446,446,446,446,446,446,446,446,447,446,446,447,447,447,447,446,446,446,447,446,447,447,447,446,445,445,443,443,444,2047,2047,445,445,445,446,445,445,445,444,444,445,445,445,445,445,446,446,447,447,446,446,446,446,450,450,450,450,449,449,2047,2047,2047,450,451,451,452,452,452,452,452,453,452,454,454,454,455,456,455,455,455,455,455,455,456,456,456,456,456,456,456,457,457,458,458,2047,463,463,463,464,464,464,465,465,466,466,467,468,469,470,471,471,472,472,473,474,474,473,473,475,477,478,479,480,481,481,481,482,482,482,482,482,482,483,483,484,486,487,489,490,490,491,495,497,499,501,501,502,503,503,504,505,506,507,507,508,509,508,2047,2047,2047,2047,2047,2047,2047,2047,2047,512,512,513,2047,2047,2047,2047,2047,2047,2047,2047,2047,2047,474,474,474,473,473,473,473,473,473,473,473,473,474,474,474,474,474,474,473,473,465,465,463,461,460,459,458,458,458,458,458,458,458,458,458,458,459,460,460,461,461,461,460,458,457,456,454,454,452,451,449,448,448,447,447,446,446,445,445,445,445,445,445,425,427,427,427,427,426,425,424,422,422,421,421,420,420,420,420,420,419,418,418,417,417,417,417,416,417,417,417,417,416,416,416,416,416,415,415,416,416,415,415,415,414,415,415,416,416,416,416,415,415,415,414,414,413,413,414,414,413,413,412,412,412,412,411,411,411,411,411,411,411,411,411,411,410,408,408,408,411,410,410,410,411,411,412,412,408,408,408,409,412,412,411,411,411,411,411,2047,2047,2047,2047,2047,2047,2047,2047
2047,2047,2047,568,567,566,566,564,564,564,563,563,562,562,562,561,559,558,557,556,555,555,554,554,553,553,552,552,551,551,551,551,550,550,550,550,548,547,547,547,546,546,546,545,545,545,545,545,546,547,547,549,548,548,548,548,548,547,547,547,546,546,546,546,546,547,547,546,547,547,547,547,549,549,550,550,554,554,555,556,557,558,557,558,558,559,558,558,559,559,560,560,561,561,561,561,561,561,561,560,560,559,559,559,559,558,558,558,558,559,560,560,561,564,564,565,565,565,564,565,565,566,567,569,569,571,572,573,573,573,2047,2047,2047,2047,2047,2047,529,529,528,527,524,521,519,518,517,516,514,512,510,510,509,508,506,505,504,503,501,501,500,499,498,497,496,495,494,493,492,492,490,489,488,487,487,486,486,486,484,484,484,484,484,484,483,483,483,483,482,482,482,481,481,480,480,480,480,479,479,479,479,479,478,478,478,478,477,476,476,475,475,475,474,473,472,470,467,465,465,463,462,460,459,458,458,458,458,458,458,458,458,458,458,458,458,458,458,458,457,457,457,457,455,455,454,453,453,453,451,450,449,448,447,446,445,445,444,443,443,441,440,440,439,439,439,438,438,438,438,438,438,438,436,437,437,437,437,436,437,437,437,437,437,438,438,438,439,439,440,440,440,441,443,444,445,446,446,446,446,445,446,446,446,446,446,446,447,447,447,447,447,449,447,447,447,446,447,447,447,446,445,445,2047,2047,2047,2047,2047,2047,444,445,445,445,445,445,444,444,445,445,445,445,445,446,446,446,446,446,446,446,447,447,448,450,450,449,449,2047,2047,448,2047,450,451,451,451,452,452,451,452,452,453,454,454,455,455,454,454,455,455,455,455,455,456,456,456,456,456,457,458,458,459,459,462,463,463,463,463,464,464,466,466,467,467,468,468,469,471,471,472,472,473,474,474,475,474,474,478,478,479,479,480,481,481,481,482,483,482,483,483,483,483,484,486,487,488,489,490,491,492,497,498,499,500,501,503,504,505,506,507,507,507,508,508,509,509,509,2047,2047,2047,2047,2047,2047,2047,2047,516,515,513,2047,2047,2047,2047,2047,2047,2047,2047,2047,2047,475,475,475,474,474,474,474,474,474,474,474,474,474,474,474,474,473,473,472,472,465,465,463,461,461,461,459,459,458,458,458,460,459,459,459,460,460,461,461,461,460,458,457,457,456,455,454,453,452,452,448,447,447,446,446,2047,2047,2047,2047,2047,2047,2047,2047,2047,2047,2047,426,425,425,425,424,424,424,421,420,420,419,419,418,418,417,418,417,417,417,417,417,417,417,417,417,417,417,417,416,416,416,416,416,416,416,415,415,415,414,415,415,415,415,414,414,413,414,413,413,413,412,412,412,412,412,412,411,411,411,411,411,411,411,411,411,411,410,410,410,410,409,408,407,408,409,409,408,408,408,409,410,410,408,408,408,409,407,409,409,409,409,409,409,2047,2047,2047,2047,2047,2047,2047,2047
2047,2047,2047,2047,2047,564,564,562,561,562,561,561,560,560,560,560,559,558,558,558,558,556,556,555,555,554,552,551,550,550,550,550,549,549,548,547,547,547,546,546,546,545,545,545,545,544,544,544,544,544,544,544,546,547,547,547,547,547,548,547,547,547,547,547,546,546,547,546,546,546,547,547,547,547,547,548,548,556,556,557,558,558,558,558,559,559,559,559,560,559,560,560,561,561,561,561,561,561,561,561,561,561,561,561,560,560,560,560,561,561,562,562,563,564,565,565,565,565,565,565,565,566,568,570,571,572,573,574,573,573,2047,2047,2047,2047,2047,535,534,533,531,527,525,523,522,520,519,517,516,514,512,510,509,508,507,505,504,503,502,501,501,500,499,498,497,495,494,493,493,492,491,490,489,489,488,488,487,487,486,486,486,485,485,484,484,484,484,483,483,483,483,483,482,482,482,482,481,480,480,480,479,479,479,479,479,478,477,477,476,476,476,475,475,474,473,470,465,465,464,462,462,459,459,458,458,458,458,458,457,457,458,457,457,458,457,457,458,458,457,457,456,456,456,456,455,454,453,452,451,449,448,447,446,446,445,444,443,443,442,441,440,439,439,439,439,439,439,438,438,438,438,438,436,437,437,436,436,435,435,435,437,437,437,438,439,440,440,440,440,441,441,442,442,443,445,445,445,445,445,445,446,446,446,446,447,447,448,448,446,447,447,447,447,447,446,446,447,447,447,447,447,447,446,2047,2047,2047,2047,2047,2047,446,446,446,447,446,445,445,445,446,445,446,445,446,448,447,448,448,448,448,448,448,448,449,449,449,2047,2047,2047,2047,450,451,452,452,453,453,453,453,454,453,454,455,455,455,456,455,455,456,456,456,456,456,457,457,457,457,457,457,457,457,459,460,462,463,464,463,463,464,465,465,466,467,467,468,469,470,472,472,472,473,473,474,475,475,475,475,478,478,478,479,480,481,481,481,483,483,482,483,483,483,484,486,487,488,489,490,491,492,493,497,498,499,501,501,504,505,505,506,507,508,508,508,508,509,509,2047,2047,2047,2047,2047,2047,2047,2047,2047,518,517,2047,2047,2047,2047,2047,2047,2047,2047,2047,2047,2047,476,475,475,474,474,474,474,474,474,474,475,475,474,474,474,474,474,473,472,472,464,464,462,461,460,460,459,459,459,459,460,460,460,460,460,460,461,461,462,461,460,459,457,457,456,454,454,453,452,450,448,447,447,446,2047,2047,2047,2047,2047,2047,2047,2047,2047,2047,2047,427,426,425,424,424,424,423,422,421,420,420,419,419,418,418,418,418,418,418,418,417,417,416,416,416,417,417,416,417,416,416,416,416,416,416,417,416,416,416,415,416,416,416,416,415,414,413,413,413,412,412,412,412,411,412,411,411,411,411,411,411,410,410,410,411,411,410,408,409,409,408,407,407,407,407,405,407,406,406,407,403,410,409,403,407,407,407,404,407,407,408,407,408,407,2047,2047,2047,2047,2047,2047,2047,2047
2047,2047,2047,2047,2047,2047,565,563,562,563,561,561,560,560,560,560,559,559,558,558,559,559,558,558,556,554,551,550,550,549,549,549,548,548,548,548,547,547,546,546,546,545,545,545,544,544,544,544,544,544,544,544,544,546,546,547,547,547,548,547,547,547,547,547,547,547,547,546,546,546,547,547,547,547,547,547,547,557,557,557,558,558,559,559,559,559,559,559,560,559,560,560,561,561,561,561,561,562,561,561,561,561,561,561,561,561,561,561,561,562,562,563,564,565,565,565,565,566,565,566,565,566,568,570,571,572,573,574,573,573,2047,2047,2047,2047,2047,535,2047,2047,2047,526,524,522,521,521,519,518,516,514,512,510,509,508,507,505,504,503,502,501,501,500,498,498,497,496,495,494,493,492,491,490,490,489,488,488,488,487,486,486,486,485,485,485,484,484,484,483,483,483,483,482,482,482,482,481,481,480,480,480,479,479,478,478,478,477,477,477,477,476,476,475,475,474,473,470,464,463,463,461,460,459,458,458,458,457,457,457,457,457,457,457,457,457,457,457,457,458,457,457,456,455,455,455,454,454,453,452,451,449,448,447,447,446,445,444,443,443,442,441,440,440,439,439,439,439,439,438,438,438,438,438,435,435,435,435,435,434,435,434,435,436,435,437,438,438,438,439,439,440,440,441,442,442,444,444,444,445,445,445,445,446,446,446,446,446,447,447,446,446,446,447,446,446,446,446,447,447,447,447,447,447,446,2047,2047,2047,2047,2047,2047,2047,446,446,447,446,445,444,445,445,445,445,445,446,448,447,447,448,448,448,448,448,448,449,449,449,449,2047,2047,2047,2047,451,452,452,453,453,453,452,453,453,454,454,454,455,456,455,455,456,456,455,456,456,456,457,457,457,457,457,458,458,460,461,462,463,463,463,463,464,464,465,466,466,467,468,469,470,472,472,472,473,473,474,475,475,475,476,478,478,479,479,480,480,481,481,483,483,482,483,483,484,485,486,487,489,490,490,491,493,495,498,499,500,501,502,504,505,506,507,507,508,509,508,509,2047,2047,2047,2047,2047,2047,2047,2047,2047,2047,2047,519,518,2047,2047,2047,2047,2047,2047,2047,2047,2047,2047,477,476,476,476,475,475,474,474,474,474,475,475,475,474,474,474,474,473,473,471,471,465,464,462,461,460,460,459,459,459,459,460,460,460,460,460,461,461,462,462,461,461,460,458,458,456,455,454,453,450,450,448,2047,2047,2047,2047,2047,2047,2047,2047,2047,2047,2047,2047,2047,425,426,425,425,424,422,422,421,421,420,420,420,419,419,418,418,418,418,418,418,417,417,417,416,416,416,416,416,416,416,416,416,417,417,417,417,417,417,417,417,418,417,417,416,417,415,414,413,413,413,412,412,411,411,411,411,411,410,410,410,410,410,410,410,410,410,410,410,409,409,405,405,405,404,404,403,403,404,404,403,402,401,402,402,401,402,403,402,403,403,406,406,406,406,407,2047,2047,2047,2047,2047,2047,2047,2047
2047,2047,2047,2047,2047,2047,2047,2047,2047,562,561,560,560,559,559,560,559,559,559,559,560,560,559,559,559,556,551,550,550,549,549,549,548,548,547,547,547,546,546,546,546,545,545,544,544,544,544,544,544,544,544,544,544,546,546,546,546,547,548,547,548,548,548,547,547,547,547,546,546,547,547,547,547,547,546,547,547,547,554,556,556,557,558,559,558,559,559,560,560,560,560,560,561,561,561,561,561,562,562,561,562,562,562,562,562,562,562,562,562,563,563,564,565,565,566,566,566,566,566,566,566,566,568,570,570,572,573,574,573,573,2047,2047,2047,2047,2047,2047,2047,2047,2047,526,525,523,522,521,520,518,516,514,512,510,509,508,507,505,504,503,501,501,500,499,498,498,497,496,495,494,493,492,491,491,490,489,489,488,488,487,487,487,486,486,486,485,485,484,484,484,483,483,483,483,482,482,482,481,481,480,480,480,479,479,478,478,478,477,477,476,476,476,476,475,475,474,472,470,462,461,461,460,460,458,458,457,457,457,457,457,457,457,457,457,457,457,457,457,457,457,457,457,456,455,455,455,454,454,454,452,450,449,448,447,446,446,445,444,443,442,442,440,440,439,439,439,439,439,439,438,438,438,438,438,436,436,435,435,435,434,434,434,435,435,435,436,436,437,437,437,437,438,438,440,441,441,444,443,443,444,444,444,445,445,445,446,446,446,447,447,446,446,446,447,447,447,446,446,449,448,448,448,448,448,2047,2047,2047,2047,2047,2047,2047,2047,445,445,446,445,445,444,444,444,444,445,445,445,446,447,447,447,447,447,447,447,448,448,448,448,2047,2047,2047,2047,2047,2047,452,452,453,453,453,452,452,453,453,453,455,455,456,455,455,456,456,456,456,456,456,457,457,457,457,457,459,458,460,461,462,463,463,463,464,464,465,464,465,466,467,468,469,470,471,471,472,472,472,473,475,474,475,477,478,479,479,479,480,480,481,481,483,483,483,483,484,484,485,486,487,489,491,491,493,494,496,498,500,501,503,503,504,505,506,507,508,508,509,508,508,508,534,534,534,2047,2047,2047,2047,2047,2047,2047,520,519,2047,2047,2047,2047,2047,2047,2047,2047,479,479,477,477,477,476,475,475,475,475,475,475,475,475,475,474,474,473,473,472,472,469,467,465,463,462,461,460,460,460,459,459,459,460,461,461,461,461,462,462,462,462,461,461,460,460,457,2047,454,454,453,452,2047,2047,2047,2047,2047,2047,2047,2047,2047,2047,2047,2047,428,428,427,426,426,425,424,422,422,422,421,422,421,420,419,419,419,418,418,418,418,418,418,417,416,417,416,416,416,415,416,416,417,416,416,417,417,417,417,417,417,417,417,418,418,418,418,417,415,415,414,413,412,412,412,411,410,409,408,409,409,408,409,409,409,408,408,404,405,405,404,404,404,404,404,403,403,403,402,402,404,401,401,401,401,401,401,401,401,403,402,402,402,404,404,405,404,406,2047,2047,2047,2047,2047,2047,2047,2047
2047,2047,2047,2047,2047,2047,2047,2047,2047,561,560,560,559,557,558,559,557,557,558,558,559,560,560,560,559,559,559,559,551,549,549,549,548,548,547,547,547,546,546,545,545,545,545,544,544,543,543,543,543,543,543,544,544,545,545,545,545,546,548,547,548,548,549,548,548,548,548,547,547,547,547,547,546,546,546,546,546,546,546,556,555,557,558,559,558,559,559,559,559,559,560,561,561,561,561,561,562,562,562,562,562,562,563,563,563,564,563,563,564,564,564,565,565,566,566,566,566,566,566,567,566,567,568,570,570,572,573,574,573,573,2047,2047,2047,2047,2047,2047,2047,2047,2047,527,525,523,522,520,519,517,516,515,512,511,509,508,507,505,504,503,501,501,500,499,498,497,497,496,495,494,494,493,491,491,490,490,489,488,488,488,487,487,486,486,485,485,485,484,484,484,484,483,483,482,482,482,482,481,481,480,480,480,480,479,479,479,478,477,477,476,476,476,476,475,475,459,460,461,460,460,460,460,459,458,457,457,457,457,457,457,457,457,457,457,457,457,457,457,457,457,456,456,455,455,454,454,454,453,453,452,450,449,448,447,446,446,445,444,443,442,442,441,440,439,439,439,439,439,438,438,438,438,437,438,435,435,435,435,434,434,434,434,434,435,435,435,436,436,436,437,436,436,437,437,439,440,443,443,443,443,444,444,445,445,445,445,445,445,446,446,446,446,446,447,447,447,447,447,449,449,448,449,448,449,2047,2047,2047,2047,2047,2047,2047,2047,2047,446,445,445,445,2047,2047,2047,2047,445,445,446,447,447,448,447,447,447,447,447,447,447,448,449,2047,2047,2047,2047,2047,2047,2047,453,453,453,453,452,452,452,452,452,453,453,455,455,456,456,456,456,456,456,456,457,457,457,457,457,459,459,460,461,461,462,463,463,463,464,465,465,466,466,467,468,469,470,472,472,472,472,473,473,475,474,475,477,478,479,479,480,480,481,482,482,483,484,483,484,484,485,486,487,488,489,491,492,493,495,496,499,501,501,503,503,505,506,507,507,509,509,509,509,509,533,534,534,534,2047,2047,2047,2047,2047,2047,524,524,519,2047,2047,2047,2047,2047,2047,2047,2047,480,479,478,478,477,477,476,475,475,475,475,476,476,475,475,474,474,473,473,472,472,468,464,463,462,461,461,460,461,460,459,460,460,461,461,462,462,462,463,462,462,462,461,461,460,460,457,2047,2047,2047,2047,2047,2047,2047,2047,2047,2047,2047,2047,2047,2047,2047,430,429,429,428,427,426,425,425,424,422,422,421,421,421,420,419,419,419,419,418,418,418,419,419,419,417,416,416,415,416,415,415,416,416,417,416,417,417,417,417,417,417,417,417,418,418,417,417,416,415,415,414,413,412,412,411,411,410,408,407,406,405,405,407,405,405,404,403,403,401,402,401,401,401,401,400,400,402,401,401,401,400,402,400,400,400,400,400,400,400,400,402,403,402,402,403,403,404,403,405,2047,2047,2047,2047,2047,2047,2047,2047
2047,2047,2047,2047,2047,2047,2047,2047,2047,2047,560,559,559,556,557,557,556,555,555,557,558,559,559,559,559,559,558,558,555,550,548,548,547,547,546,547,546,546,546,546,546,545,545,544,544,544,544,543,543,543,543,543,543,545,545,545,545,545,547,547,548,549,549,549,549,550,549,548,548,547,547,546,546,545,545,545,545,546,546,546,553,555,556,558,558,558,558,559,559,559,560,561,561,561,561,561,562,562,562,562,562,562,563,563,563,564,564,564,564,565,565,565,566,566,566,566,566,567,566,567,567,568,569,570,571,572,573,574,573,2047,2047,2047,2047,2047,2047,2047,2047,2047,2047,2047,526,523,521,521,520,518,516,515,513,511,509,508,507,505,504,503,501,501,500,499,498,497,497,496,495,495,494,493,491,491,490,490,489,488,488,487,487,487,486,486,485,485,485,484,484,484,484,483,483,482,482,481,481,481,481,480,480,480,480,480,479,479,479,478,477,476,476,475,475,475,459,459,460,460,460,460,460,459,459,457,456,456,456,456,456,456,456,456,456,456,456,457,456,456,456,457,456,455,455,454,454,454,453,453,453,451,450,449,448,447,446,446,445,444,443,442,441,440,439,439,439,439,439,438,438,438,437,438,437,437,435,435,434,434,434,433,434,433,434,434,434,435,435,435,436,436,435,435,436,437,438,438,439,442,442,442,443,444,444,444,445,445,445,445,446,446,446,446,445,446,448,447,447,448,449,449,449,449,448,449,2047,2047,2047,2047,2047,2047,2047,2047,2047,2047,2047,2047,2047,2047,2047,2047,2047,446,446,447,447,447,447,447,447,448,448,447,447,448,448,448,448,2047,2047,2047,2047,2047,2047,452,452,452,452,451,451,451,450,450,451,452,454,453,453,455,455,455,456,456,456,457,456,456,456,457,458,459,460,460,461,462,462,463,463,464,465,465,465,466,467,468,469,472,472,472,472,473,473,474,475,475,476,477,478,479,480,480,480,481,482,483,484,484,483,484,485,486,486,487,488,489,491,491,493,495,496,499,501,502,503,504,506,506,507,508,509,509,509,509,533,533,533,534,534,2047,2047,2047,2047,2047,2047,2047,2047,519,2047,2047,2047,2047,2047,2047,2047,2047,480,479,478,478,477,477,476,475,475,475,475,475,475,475,475,474,474,473,472,471,471,467,465,464,463,462,461,461,461,460,460,460,460,461,462,462,462,462,463,462,462,462,461,460,459,2047,2047,2047,2047,2047,2047,2047,2047,2047,2047,2047,2047,2047,2047,2047,2047,2047,429,429,428,428,427,425,425,424,423,422,422,421,421,420,420,419,418,419,421,418,418,418,419,419,419,416,415,415,415,416,416,416,416,417,417,417,417,418,418,418,418,418,418,418,418,419,419,419,416,2047,416,413,413,412,411,411,410,408,406,406,405,404,404,404,403,403,402,401,401,400,401,400,400,400,400,400,399,399,400,400,400,400,400,399,399,399,399,399,400,400,400,404,403,402,402,402,402,403,403,404,2047,2047,2047,2047,2047,2047,2047,2047
2047,2047,2047,2047,2047,2047,2047,2047,2047,562,561,560,559,556,557,556,555,554,553,554,558,559,559,559,559,559,558,557,551,549,548,548,547,547,546,547,547,547,547,546,546,546,546,544,544,544,544,543,543,542,543,543,543,543,543,543,543,544,544,547,550,549,550,550,549,550,549,549,548,548,547,546,546,546,545,546,545,546,546,548,551,551,554,557,557,557,558,560,560,560,560,561,562,561,561,561,562,562,562,563,563,563,564,564,565,566,565,565,565,566,566,566,566,566,566,566,566,567,566,567,567,568,569,570,571,572,573,574,574,2047,2047,2047,2047,2047,2047,2047,2047,2047,2047,2047,2047,2047,521,521,520,518,517,515,513,511,509,508,506,505,504,503,502,501,500,499,498,498,497,496,495,495,494,493,491,491,490,490,490,489,488,488,487,487,486,485,485,485,485,484,484,484,483,483,483,482,482,481,481,481,481,480,480,480,480,479,479,479,479,478,477,476,476,475,475,474,459,459,460,460,460,460,459,459,458,456,456,456,456,456,456,456,456,456,456,456,456,456,455,455,455,455,455,454,454,454,453,453,452,452,452,451,450,449,448,447,447,446,445,444,443,441,441,440,439,439,439,439,439,438,438,438,438,438,437,437,435,435,434,434,433,433,433,433,433,434,434,434,434,435,435,435,435,435,436,437,437,438,438,440,440,441,442,442,443,444,444,444,445,445,445,445,445,445,445,446,447,447,447,448,449,449,449,449,448,449,2047,2047,2047,2047,2047,2047,2047,2047,2047,2047,2047,2047,2047,2047,2047,2047,2047,445,445,446,447,447,447,447,447,448,448,447,447,448,448,448,448,2047,2047,2047,2047,2047,2047,2047,451,451,451,451,451,451,450,450,451,452,453,452,452,454,455,455,455,455,456,456,456,456,456,457,459,459,460,461,462,462,462,462,463,463,464,464,465,466,467,467,468,469,470,470,472,473,473,474,475,476,477,478,479,479,480,480,480,481,482,483,484,484,483,484,485,486,487,488,488,490,492,492,494,495,496,501,502,503,504,505,506,507,507,508,509,509,509,509,533,533,533,534,535,535,536,2047,2047,2047,2047,2047,2047,520,2047,2047,2047,2047,2047,2047,2047,2047,480,479,478,478,477,477,476,475,475,475,475,476,475,475,474,474,473,473,473,473,466,466,466,462,462,461,461,461,461,460,460,461,461,462,462,463,463,463,463,462,462,462,461,460,2047,2047,2047,2047,2047,2047,2047,2047,2047,2047,2047,2047,2047,2047,2047,2047,2047,430,429,429,428,427,426,425,424,423,422,421,421,421,420,420,419,419,419,419,421,418,417,417,417,417,418,416,415,415,415,416,416,417,417,417,417,417,417,419,419,418,418,418,418,418,418,418,418,418,2047,2047,2047,408,408,408,407,407,405,405,405,405,404,404,403,402,401,402,401,401,400,400,400,399,398,399,399,399,399,398,399,400,399,399,2047,2047,2047,391,2047,391,391,391,390,389,389,400,400,400,400,403,403,403,2047,2047,2047,2047,2047,2047,2047,2047
2047,2047,2047,2047,2047,2047,2047,2047,2047,2047,2047,2047,556,555,555,555,553,552,551,552,551,551,547,547,547,547,553,553,553,550,548,547,545,545,544,544,544,544,544,544,544,543,543,543,543,542,543,542,542,542,541,541,541,541,540,541,541,541,541,542,541,542,546,547,547,548,549,548,547,547,547,546,545,545,545,545,545,545,545,546,549,549,549,551,553,552,556,557,559,558,559,561,562,561,561,562,562,562,563,563,565,565,565,565,566,566,566,566,566,567,567,566,566,566,566,566,566,567,567,567,568,569,569,570,570,571,572,573,2047,2047,2047,2047,2047,2047,2047,2047,2047,2047,2047,2047,2047,2047,521,521,520,519,517,516,514,512,510,509,508,507,506,505,503,502,501,501,500,499,498,497,496,496,495,494,493,492,490,490,489,489,488,488,488,487,487,487,487,486,486,485,485,484,484,484,483,483,483,483,483,483,483,482,482,482,481,481,480,480,480,479,478,477,477,476,475,474,474,460,460,460,460,459,459,459,458,457,456,456,456,456,457,457,457,457,457,457,457,457,456,456,457,456,457,455,455,456,456,455,454,452,451,451,450,450,449,449,447,447,446,445,443,443,442,442,441,440,440,439,439,438,438,438,438,438,437,437,435,435,435,435,434,434,434,434,434,434,434,434,434,434,435,435,434,434,435,436,436,437,438,440,440,440,441,441,442,442,444,445,445,446,445,446,446,446,446,446,447,447,447,448,448,449,2047,2047,2047,2047,2047,2047,2047,2047,2047,2047,2047,2047,2047,2047,2047,2047,2047,2047,2047,2047,2047,446,445,446,448,448,448,448,448,450,449,448,448,448,448,448,448,448,2047,2047,2047,2047,2047,2047,2047,453,452,452,452,452,452,451,451,452,452,452,452,452,456,456,457,457,458,457,457,457,458,458,458,459,459,460,460,461,461,462,462,463,464,466,466,466,467,469,469,470,470,470,471,472,472,473,474,476,477,478,479,479,480,480,481,482,482,483,484,485,484,485,486,486,487,488,488,490,491,492,494,495,495,501,502,503,505,506,507,507,508,509,510,511,2047,2047,2047,2047,531,532,532,534,537,536,2047,2047,2047,2047,2047,2047,2047,2047,2047,2047,2047,2047,2047,2047,2047,480,479,478,478,477,477,476,476,476,475,475,475,476,475,475,474,473,473,467,467,467,466,466,463,460,461,459,459,459,459,460,460,461,462,462,462,462,463,463,463,463,462,461,2047,2047,2047,2047,2047,2047,2047,2047,2047,2047,2047,2047,2047,2047,2047,432,430,429,428,428,426,426,425,424,423,422,421,420,420,420,419,419,418,418,418,418,418,417,417,417,416,417,417,416,416,417,417,417,417,417,417,417,418,418,418,417,417,416,416,417,416,416,414,415,414,414,414,408,408,408,407,407,406,405,405,404,404,404,403,403,402,401,401,401,401,400,400,400,400,398,398,398,398,398,397,396,396,390,390,391,391,2047,391,391,391,391,391,390,390,388,387,2047,2047,2047,2047,2047,2047,404,2047,2047,2047,2047,2047,2047,2047,2047
2047,2047,2047,2047,2047,2047,2047,2047,2047,2047,2047,555,555,554,554,554,552,551,550,548,548,548,547,547,547,546,547,548,547,553,548,548,548,548,546,545,544,545,544,544,545,544,543,543,543,543,543,543,543,543,542,541,541,541,540,540,540,540,541,541,541,543,545,547,547,549,549,548,548,548,547,547,546,545,545,545,545,545,545,546,548,548,549,550,551,551,552,556,558,558,559,561,562,561,561,562,562,562,563,564,566,566,566,566,566,567,567,567,567,567,567,566,566,566,566,566,566,567,567,568,568,569,569,570,570,571,572,574,2047,2047,2047,2047,2047,2047,2047,2047,2047,2047,2047,2047,2047,2047,2047,2047,520,519,518,516,514,511,510,509,508,507,506,505,503,502,501,501,500,499,498,497,497,496,496,495,494,492,492,491,490,489,488,488,488,488,487,487,487,486,486,486,485,484,484,483,483,483,483,483,483,483,483,482,483,483,482,481,481,480,480,479,478,477,477,476,476,476,459,459,460,460,460,459,458,458,458,457,456,456,456,456,457,457,457,457,458,457,457,457,456,456,456,456,456,455,456,455,455,454,453,452,451,451,450,450,449,448,447,446,445,444,443,442,442,441,440,440,439,439,438,438,438,438,438,438,437,437,435,435,435,434,434,434,434,433,434,434,434,434,434,434,435,435,434,434,435,436,436,437,437,438,439,439,440,441,441,442,442,443,445,445,445,445,445,445,445,445,446,446,446,448,448,2047,2047,2047,2047,2047,2047,2047,2047,2047,2047,2047,2047,2047,2047,2047,2047,2047,2047,2047,2047,2047,2047,445,445,446,447,448,2047,2047,2047,2047,2047,2047,2047,447,447,448,448,2047,2047,2047,2047,2047,2047,2047,2047,453,452,452,452,451,451,451,452,452,452,451,452,456,456,456,457,457,458,457,457,457,458,458,459,459,460,460,461,461,461,462,462,463,464,464,466,466,467,469,469,470,470,470,472,472,472,474,475,476,478,478,479,479,480,480,481,482,483,483,484,485,485,485,486,487,487,488,489,490,491,492,494,495,495,501,502,504,505,507,508,508,509,510,510,511,2047,2047,2047,2047,532,532,533,534,534,538,2047,2047,2047,2047,2047,2047,2047,2047,2047,2047,2047,2047,2047,2047,2047,2047,2047,478,478,478,477,476,476,476,475,476,476,475,475,474,474,474,469,467,467,466,465,464,462,461,461,460,459,459,459,460,460,461,462,462,462,462,462,463,463,462,461,461,461,2047,2047,2047,2047,2047,2047,2047,2047,2047,2047,2047,2047,433,2047,432,432,429,428,427,426,425,424,423,422,421,421,420,420,420,419,419,418,418,418,418,418,417,417,417,417,416,416,416,416,416,416,419,418,418,418,419,419,420,420,419,419,419,418,418,415,415,414,414,414,408,408,408,408,407,406,405,405,404,404,403,403,403,402,402,401,400,400,400,400,400,400,399,399,397,397,396,396,396,395,395,390,390,390,391,391,2047,2047,390,390,389,389,389,389,388,386,2047,2047,2047,2047,2047,2047,2047,2047,2047,2047,2047,2047,2047,2047,2047
