2047,2047,2047,2047,2047,2047,2047,2047,2047,2047,2047,2047,2047,2047,2047,2047,2047,2047,2047,2047,2047,2047,2047,2047,2047,2047,2047,2047,2047,2047,2047,2047,2047,2047,2047,2047,2047,2047,2047,2047,2047,2047,2047,2047,2047,2047,2047,2047,2047,2047,2047,2047,2047,2047,2047,2047,2047,2047,2047,2047,2047,2047,2047,2047,2047,2047,2047,2047,2047,2047,2047,2047,2047,2047,2047,2047,2047,2047,2047,2047,2047,2047,2047,2047,2047,2047,2047,2047,2047,2047,2047,2047,2047,2047,2047,2047,2047,2047,2047,2047,2047,2047,2047,2047,2047,2047,2047,2047,2047,2047,2047,2047,2047,2047,2047,2047,2047,2047,2047,938,938,937,937,937,2047,2047,2047,2047,2047,937,936,936,936,936,936,937,936,936,937,937,937,937,937,937,936,936,936,936,960,959,958,957,956,956,955,955,955,953,953,952,951,950,949,944,943,943,942,941,940,940,914,914,913,913,913,916,916,916,916,916,917,916,916,916,916,917,917,917,917,917,917,917,917,918,918,918,918,919,919,919,919,919,920,919,919,919,920,920,920,920,920,920,921,921,921,921,922,922,921,922,921,921,922,922,922,922,922,921,922,922,922,2047,2047,2047,2047,2047,2047,891,891,891,891,2047,889,889,889,889,889,889,889,889,889,890,889,889,889,889,889,889,887,886,886,886,886,886,886,887,887,887,887,887,885,886,885,885,885,885,885,886,886,885,885,885,885,885,885,885,885,884,884,884,884,884,884,884,884,884,884,884,884,884,884,884,884,884,884,884,885,885,885,885,885,885,885,885,885,885,885,885,885,885,885,885,885,885,885,885,885,885,885,885,885,885,885,885,886,886,886,885,885,885,885,886,886,886,886,887,887,887,888,888,889,888,889,888,888,888,888,888,888,888,889,889,889,889,889,890,891,891,897,898,898,898,919,918,916,916,915,915,914,914,915,915,916,916,917,917,918,944,944,944,943,942,944,943,943,943,943,943,944,944,944,944,944,945,945,945,945,945,945,945,945,945,945,945,945,945,945,945,946,946,946,947,947,946,947,947,947,947,947,947,947,948,948,948,948,948,949,949,949,949,949,949,949,949,949,949,949,949,949,949,950,950,949,949,950,950,950,950,950,950,950,951,950,951,951,951,951,951,951,951,951,951,951,2047,938,938,938,937,937,937,936,936,935,935,934,934,933,933,932,932,932,932,931,931,930,930,930,930,929,929,929,928,927,927,926,926,925,923,923,922,922,922,922,922,922,921,921,920,2047,2047,2047,2047,2047,2047,2047,925,924,2047,2047,2047,2047,2047,2047,2047,2047,2047,2047,2047,2047,2047,2047,2047,2047,2047,2047,2047,2047,925,925,925,2047,925,925,926,2047,2047,2047,2047,2047,2047,2047,2047,2047,2047,2047,2047,2047,2047,2047,2047,2047,2047,2047,2047,2047,2047,2047,2047,2047,2047,2047,2047,758,757,757,755,754,750,749,748,747,746,746,745,744,742,741,739,738,737,736,735,734,733,732,731,730,730,730,729,728,727,726,725,724,724,723,722,2047
2047,2047,2047,2047,2047,2047,2047,2047,2047,2047,2047,2047,2047,2047,2047,2047,2047,2047,2047,2047,2047,2047,2047,2047,2047,2047,2047,2047,2047,2047,2047,2047,2047,2047,2047,2047,2047,2047,2047,2047,2047,2047,2047,2047,2047,2047,2047,2047,2047,2047,2047,2047,2047,2047,2047,2047,2047,2047,2047,2047,2047,2047,2047,2047,2047,2047,2047,2047,2047,2047,2047,2047,2047,2047,2047,2047,2047,2047,2047,2047,2047,2047,2047,2047,2047,2047,2047,2047,2047,2047,2047,2047,2047,2047,2047,2047,2047,2047,2047,2047,2047,2047,2047,2047,2047,2047,2047,2047,2047,2047,2047,2047,2047,2047,2047,2047,2047,2047,2047,2047,938,938,2047,2047,2047,2047,2047,2047,2047,936,936,936,936,936,936,936,936,936,937,937,937,937,937,937,937,936,936,936,959,958,958,957,956,956,956,955,955,953,953,952,950,946,945,944,943,942,941,941,940,939,938,938,933,932,931,932,932,2047,917,917,917,917,917,917,917,917,917,917,917,917,917,917,918,918,919,919,919,919,920,920,920,920,920,920,920,920,920,920,920,920,920,920,921,921,922,922,922,922,922,922,922,921,922,922,922,922,922,922,922,922,922,2047,2047,2047,2047,2047,2047,891,891,891,892,2047,892,889,889,889,889,889,890,889,889,889,889,890,889,889,889,889,886,886,886,886,886,887,887,887,887,887,887,887,885,885,885,885,885,885,885,885,885,885,885,885,885,885,885,885,885,884,884,884,884,884,884,884,884,884,884,884,884,884,884,884,884,884,884,884,885,885,885,885,885,885,885,885,885,885,885,885,885,885,885,885,885,885,885,885,885,885,885,885,885,885,885,885,885,886,886,885,885,885,886,886,886,886,886,887,887,887,887,888,888,888,889,888,889,889,889,889,889,889,889,889,890,890,890,890,890,894,897,898,898,898,898,918,917,916,915,914,914,914,915,916,916,917,917,917,918,918,945,944,943,943,944,944,944,944,944,944,944,944,945,944,945,945,945,946,946,946,945,945,945,945,945,945,945,945,945,945,946,946,946,946,946,946,947,947,947,947,947,947,948,948,948,948,948,949,949,949,949,949,949,949,949,949,949,949,949,949,949,950,950,950,950,950,950,950,950,950,950,950,950,951,951,951,951,951,951,951,951,951,952,952,2047,2047,938,938,937,937,937,937,936,936,936,935,935,934,934,933,933,933,932,932,931,931,930,930,930,930,929,929,929,928,927,926,926,925,924,923,923,923,922,923,923,922,922,922,921,921,921,921,2047,2047,2047,2047,2047,2047,925,2047,2047,2047,2047,2047,2047,2047,2047,2047,2047,2047,2047,2047,2047,2047,2047,2047,2047,2047,2047,2047,925,2047,2047,2047,2047,925,2047,2047,2047,2047,2047,2047,2047,2047,2047,2047,2047,2047,2047,2047,2047,2047,2047,2047,2047,2047,2047,2047,2047,2047,2047,2047,2047,2047,2047,757,756,754,753,751,749,748,747,746,746,745,744,742,741,738,737,736,735,734,734,733,732,731,730,730,729,729,728,727,726,725,724,723,723,722,2047
2047,2047,2047,2047,2047,2047,2047,2047,2047,2047,2047,2047,2047,2047,2047,2047,2047,2047,2047,2047,2047,2047,2047,2047,2047,2047,2047,2047,2047,2047,2047,2047,2047,2047,2047,2047,2047,2047,2047,2047,2047,2047,2047,2047,2047,2047,2047,2047,2047,2047,2047,2047,2047,2047,2047,2047,2047,2047,2047,2047,2047,2047,2047,2047,2047,2047,2047,2047,2047,2047,2047,2047,2047,2047,2047,2047,2047,2047,2047,2047,2047,2047,2047,2047,2047,2047,2047,2047,2047,2047,2047,2047,2047,2047,2047,2047,2047,2047,2047,2047,2047,2047,2047,2047,2047,2047,2047,2047,2047,2047,2047,2047,2047,2047,2047,2047,2047,2047,2047,2047,2047,2047,2047,2047,2047,2047,2047,2047,2047,2047,935,935,936,936,936,936,936,937,937,937,937,936,936,936,936,936,936,958,958,958,958,957,957,956,956,957,956,953,952,950,948,948,947,945,944,942,941,941,940,940,939,937,934,932,931,931,929,929,919,919,919,918,918,917,917,917,917,918,918,918,918,919,919,919,920,919,920,920,920,920,920,920,920,920,920,921,921,921,921,921,921,921,922,922,922,922,922,923,923,922,922,922,922,922,923,923,923,923,923,923,923,923,2047,923,923,894,2047,894,894,894,894,894,892,892,892,891,891,890,889,889,889,889,889,888,889,889,888,889,889,888,889,888,888,888,888,888,888,888,887,888,887,887,887,887,886,886,886,885,885,885,885,885,884,884,884,884,884,884,884,883,883,884,884,884,884,884,884,884,884,884,884,884,884,884,884,884,885,885,885,886,886,886,886,885,885,885,885,885,885,884,884,885,885,885,885,885,885,885,885,885,884,885,885,885,885,886,886,886,886,886,886,887,886,886,886,887,887,887,887,888,888,888,889,889,889,889,889,889,889,889,889,890,890,890,890,890,890,890,898,899,899,899,899,918,916,915,915,914,914,914,915,915,915,916,917,917,947,946,946,945,944,944,944,944,944,944,945,945,945,945,945,945,945,945,945,945,945,945,945,945,945,945,945,945,945,945,945,945,946,946,946,946,947,947,947,947,947,947,947,947,948,948,948,948,948,948,949,949,949,949,949,949,949,949,949,949,949,949,949,949,949,949,949,950,950,950,950,950,950,950,950,950,950,950,950,950,950,950,950,950,950,949,949,2047,938,938,938,937,937,937,937,936,936,936,936,935,934,934,934,933,933,933,932,932,931,931,930,930,929,929,929,928,927,927,923,923,922,922,922,922,922,923,923,923,924,924,924,925,925,924,924,924,924,925,925,924,925,924,2047,2047,2047,2047,2047,2047,2047,2047,2047,2047,2047,2047,2047,2047,925,925,925,925,925,925,925,925,925,2047,2047,2047,2047,2047,2047,2047,2047,2047,2047,2047,2047,2047,2047,2047,2047,2047,2047,2047,2047,2047,2047,2047,2047,2047,2047,2047,2047,2047,2047,761,759,758,757,755,754,751,750,749,748,747,746,744,743,741,741,739,738,737,735,734,733,733,732,731,731,730,730,729,728,726,725,724,723,723,722,722,2047
2047,2047,2047,2047,2047,2047,2047,2047,2047,2047,2047,2047,2047,2047,2047,2047,2047,2047,2047,2047,2047,2047,2047,2047,2047,2047,2047,2047,2047,2047,2047,2047,2047,2047,2047,2047,2047,2047,2047,2047,2047,2047,2047,2047,2047,2047,2047,2047,2047,2047,2047,2047,2047,2047,2047,2047,2047,2047,2047,2047,2047,2047,2047,2047,2047,2047,2047,2047,2047,2047,2047,2047,2047,2047,2047,2047,2047,2047,2047,2047,2047,2047,2047,2047,2047,2047,2047,2047,2047,2047,2047,2047,2047,2047,2047,2047,2047,2047,2047,2047,2047,2047,2047,2047,2047,2047,2047,2047,2047,2047,2047,2047,2047,2047,2047,2047,2047,2047,2047,2047,2047,2047,2047,2047,2047,2047,2047,2047,2047,2047,933,933,935,936,936,936,936,937,937,937,937,936,937,936,936,936,935,933,958,958,958,958,957,957,956,957,956,953,952,950,948,947,945,944,943,942,941,941,940,939,937,937,933,932,931,931,929,929,922,920,920,919,918,918,917,917,917,918,918,918,918,919,919,920,920,920,920,920,920,920,920,920,920,921,920,921,921,921,921,921,921,921,922,922,922,922,922,922,922,922,922,922,923,923,923,923,923,923,923,923,923,923,2047,2047,2047,2047,2047,894,895,894,894,894,893,892,891,891,891,890,889,889,889,890,889,889,889,889,888,889,889,888,888,888,888,888,888,888,888,887,887,887,886,886,886,886,886,885,887,885,885,885,885,885,884,884,884,884,884,884,883,883,883,883,884,883,884,884,884,884,884,884,884,884,884,884,884,884,885,885,886,886,886,886,886,886,886,885,885,885,885,885,885,885,885,885,885,885,885,885,885,885,885,885,885,885,885,886,886,886,886,886,887,887,887,886,886,887,886,887,887,888,888,888,889,889,889,889,889,889,889,889,889,890,890,890,890,890,890,891,898,900,899,899,899,917,916,915,915,914,914,914,914,915,915,916,917,917,918,946,945,945,944,944,944,944,944,944,944,945,945,945,945,945,945,945,945,945,945,945,945,945,945,945,945,945,945,945,945,945,945,946,946,946,947,947,946,947,947,947,947,947,948,948,948,948,948,948,949,949,949,949,949,949,949,949,949,949,948,948,949,949,949,949,950,950,950,950,950,950,950,950,950,950,950,950,950,950,950,950,950,950,950,950,950,950,938,938,938,937,937,937,937,937,936,936,936,935,934,934,934,933,933,933,932,932,931,931,930,930,929,929,928,927,926,926,923,922,922,922,922,922,922,923,923,923,923,924,924,925,925,925,925,924,924,925,925,924,925,924,925,925,925,2047,2047,2047,2047,2047,2047,2047,2047,2047,2047,2047,925,925,925,925,925,925,925,925,925,2047,2047,2047,2047,2047,2047,2047,2047,2047,2047,2047,2047,2047,2047,2047,2047,2047,2047,2047,2047,2047,2047,2047,2047,2047,2047,2047,2047,2047,2047,2047,758,758,757,756,754,752,751,750,749,748,746,744,743,742,741,739,738,736,735,734,733,732,731,730,730,729,729,728,727,726,725,724,723,723,722,722,2047
2047,2047,2047,2047,2047,2047,2047,2047,2047,2047,2047,2047,2047,2047,2047,2047,2047,2047,2047,2047,2047,2047,2047,2047,2047,2047,2047,2047,2047,2047,2047,2047,2047,2047,2047,2047,2047,2047,2047,2047,2047,2047,2047,2047,2047,2047,2047,2047,2047,2047,2047,2047,2047,2047,2047,2047,2047,2047,2047,2047,2047,2047,2047,2047,2047,2047,2047,2047,2047,2047,2047,2047,2047,2047,2047,2047,2047,2047,2047,2047,2047,2047,2047,2047,2047,2047,2047,2047,2047,2047,2047,2047,2047,2047,2047,2047,2047,2047,2047,2047,2047,2047,2047,2047,2047,2047,2047,2047,2047,2047,2047,2047,2047,2047,2047,2047,2047,2047,2047,2047,2047,2047,2047,2047,2047,2047,2047,2047,2047,2047,932,933,935,936,936,936,936,937,937,937,937,937,937,937,937,936,935,933,958,958,958,957,956,956,956,955,956,953,952,980,980,979,946,944,942,942,941,941,940,939,939,937,933,932,932,932,929,929,921,920,920,919,918,917,917,917,917,918,918,918,918,919,919,919,920,919,920,920,920,920,920,920,920,920,920,921,921,921,921,921,921,921,922,922,922,922,922,922,922,922,922,922,922,922,923,923,923,923,923,923,924,924,2047,2047,2047,2047,2047,895,895,894,894,894,893,892,892,891,891,890,889,889,890,890,890,889,889,889,889,888,888,888,888,888,888,888,888,888,887,887,887,887,886,886,885,885,886,885,886,885,885,885,885,885,884,884,884,884,884,884,883,883,882,883,883,883,883,883,884,884,884,884,884,884,883,883,883,884,885,885,885,886,886,886,886,886,885,885,885,885,885,885,885,885,885,885,886,885,885,885,885,885,885,885,885,885,885,886,886,886,886,887,887,888,887,887,887,888,888,888,888,889,888,889,889,889,889,889,889,889,889,890,890,890,890,890,890,890,890,895,898,899,899,900,899,917,916,915,915,914,914,914,914,915,915,916,917,917,917,918,918,944,943,943,943,943,943,943,943,944,945,945,945,945,945,945,945,945,945,945,945,945,945,945,945,945,945,945,945,945,946,946,946,946,946,946,946,946,946,946,946,946,947,948,948,948,948,948,948,949,949,949,949,949,949,949,949,949,948,949,949,949,949,949,950,950,950,950,950,950,951,950,950,950,950,950,950,950,950,950,950,950,950,950,950,950,939,939,938,938,937,937,937,937,937,937,936,936,935,934,934,933,933,933,933,932,931,931,930,930,929,929,928,927,926,923,923,922,922,922,922,922,922,922,923,923,924,925,925,925,925,925,924,924,925,925,925,924,2047,2047,2047,2047,2047,2047,2047,2047,2047,2047,2047,2047,2047,2047,2047,2047,2047,2047,925,925,925,925,925,924,2047,2047,2047,2047,2047,2047,2047,2047,2047,2047,2047,2047,2047,2047,2047,2047,2047,2047,2047,2047,2047,2047,2047,2047,2047,2047,2047,2047,2047,2047,2047,2047,2047,758,757,756,755,753,752,750,749,749,747,744,743,742,741,739,737,736,734,734,733,731,731,730,730,729,729,728,727,726,725,723,723,722,722,721,2047
2047,2047,2047,2047,2047,2047,2047,2047,2047,2047,2047,2047,2047,2047,2047,2047,2047,2047,2047,2047,2047,2047,2047,2047,2047,2047,2047,2047,2047,2047,2047,2047,2047,2047,2047,2047,2047,2047,2047,2047,2047,2047,2047,2047,2047,2047,2047,2047,2047,2047,2047,2047,2047,2047,2047,2047,2047,2047,2047,2047,2047,2047,2047,2047,2047,2047,2047,2047,2047,2047,2047,2047,2047,2047,2047,2047,2047,2047,2047,2047,2047,2047,2047,2047,2047,2047,2047,2047,2047,2047,2047,2047,2047,2047,2047,2047,2047,2047,2047,2047,2047,2047,2047,2047,2047,2047,2047,2047,2047,2047,2047,2047,2047,2047,2047,2047,2047,2047,2047,2047,2047,2047,2047,2047,2047,2047,2047,2047,2047,2047,2047,930,935,936,936,936,936,936,937,937,937,936,937,937,936,936,934,933,932,958,958,957,957,956,956,956,956,954,953,980,980,979,980,944,942,941,941,941,940,938,937,935,934,932,932,931,929,929,921,920,920,919,918,918,917,918,917,918,918,918,918,918,919,919,919,919,919,919,919,919,919,919,919,920,920,920,920,921,921,921,921,921,921,921,921,921,921,922,921,922,922,922,922,922,923,923,923,923,922,923,923,924,2047,2047,2047,895,895,895,895,895,894,894,893,893,892,891,890,889,889,889,889,890,889,889,889,888,888,889,888,888,887,887,888,888,888,887,887,887,887,886,885,885,885,885,885,886,886,886,886,885,885,885,885,884,884,884,884,884,882,881,881,881,881,883,883,883,883,884,884,884,884,884,883,883,883,883,884,884,885,886,886,886,886,885,885,885,885,885,885,885,885,885,885,886,885,885,885,885,885,885,885,885,885,885,886,886,886,886,886,887,887,887,887,886,886,888,888,888,888,889,888,889,889,889,889,889,889,889,890,890,890,890,890,890,890,890,890,890,898,899,899,900,900,900,916,915,915,914,914,914,915,915,916,916,917,917,918,918,918,918,942,943,943,943,943,943,943,944,945,945,945,945,945,945,945,945,945,945,945,945,945,945,945,945,945,945,946,946,946,946,946,946,946,946,946,946,946,946,946,946,946,948,948,947,947,948,948,949,949,949,949,949,949,949,949,949,948,948,949,950,950,950,950,950,950,950,950,950,951,950,950,950,950,950,950,950,950,950,951,951,951,951,951,2047,939,939,939,938,937,938,937,937,937,937,937,936,935,934,934,933,933,933,933,932,931,931,930,930,929,929,928,927,926,926,923,923,922,922,922,922,922,922,923,923,924,925,925,925,925,925,925,925,925,925,925,925,2047,2047,2047,2047,2047,2047,2047,2047,2047,2047,2047,2047,2047,2047,2047,2047,2047,2047,925,925,925,924,924,924,2047,2047,2047,2047,2047,2047,2047,2047,2047,2047,2047,2047,2047,2047,2047,2047,2047,2047,2047,2047,2047,2047,2047,2047,2047,2047,2047,2047,2047,2047,2047,2047,2047,758,758,757,755,753,753,751,750,749,747,743,743,742,741,739,737,735,734,733,732,731,731,730,729,729,728,728,726,725,724,723,722,722,722,721,2047
2047,2047,2047,2047,2047,2047,2047,2047,2047,2047,2047,2047,2047,2047,2047,2047,2047,2047,2047,2047,2047,2047,2047,2047,2047,2047,2047,2047,2047,2047,2047,2047,2047,2047,2047,2047,2047,2047,2047,2047,2047,2047,2047,2047,2047,2047,2047,2047,2047,2047,2047,2047,2047,2047,2047,2047,2047,2047,2047,2047,2047,2047,2047,2047,2047,2047,2047,2047,2047,2047,2047,2047,2047,2047,2047,2047,2047,2047,2047,2047,2047,2047,2047,2047,2047,2047,2047,2047,2047,2047,2047,2047,2047,2047,2047,2047,2047,2047,2047,2047,2047,2047,2047,2047,2047,2047,2047,2047,2047,2047,2047,2047,2047,2047,2047,2047,2047,2047,2047,2047,2047,2047,2047,2047,2047,2047,2047,2047,2047,2047,2047,2047,936,936,936,936,936,936,937,937,937,936,937,937,937,936,935,934,958,957,958,957,957,957,956,956,956,955,956,980,980,979,980,980,942,942,941,940,939,938,937,936,935,933,932,932,930,930,921,920,919,919,918,918,917,918,918,918,918,918,917,918,919,919,919,919,919,919,920,919,919,919,919,920,920,920,920,921,921,921,921,921,921,921,921,921,921,921,921,921,921,921,922,922,923,922,922,922,922,922,922,922,2047,2047,2047,893,895,895,894,894,894,893,893,892,892,891,890,889,889,889,889,889,889,889,889,889,888,888,888,887,887,887,888,888,888,888,888,887,888,886,886,886,886,885,886,886,886,886,886,885,885,885,885,885,884,884,884,883,883,882,882,882,882,883,883,883,883,883,883,883,883,883,883,882,882,883,884,884,885,885,885,885,886,885,885,885,885,886,885,885,885,885,885,885,885,885,885,885,885,885,885,885,885,885,886,886,886,886,887,887,887,887,887,886,887,888,888,888,888,889,889,889,889,889,889,889,889,889,890,890,890,890,890,890,890,890,890,892,892,898,898,899,899,899,899,917,916,914,914,914,914,915,916,917,917,917,918,918,918,918,942,943,943,943,942,942,943,944,945,945,944,944,945,945,945,945,945,945,945,945,945,945,945,945,945,945,946,946,946,946,946,946,946,947,946,947,947,947,946,946,946,947,947,946,946,948,948,948,949,948,949,948,949,949,948,948,947,948,949,950,950,950,951,950,950,951,951,951,951,951,950,950,950,951,951,951,951,951,951,951,953,952,951,951,951,939,939,938,938,938,938,938,937,937,937,936,935,934,934,934,933,933,933,932,931,930,930,930,929,929,928,927,926,925,925,923,922,922,922,922,922,922,922,923,923,925,925,925,925,925,925,925,925,925,925,925,2047,2047,2047,2047,2047,2047,2047,2047,2047,2047,2047,2047,2047,2047,2047,2047,925,925,925,925,925,924,924,924,2047,2047,2047,2047,2047,2047,2047,2047,2047,2047,2047,2047,2047,2047,2047,2047,2047,2047,2047,2047,2047,2047,2047,2047,2047,2047,2047,2047,2047,2047,2047,2047,2047,758,758,757,756,754,753,752,751,750,747,744,743,742,741,739,737,735,734,733,732,731,730,730,729,729,728,727,726,724,723,722,722,721,721,721,2047
2047,2047,2047,2047,2047,2047,2047,2047,2047,2047,2047,2047,2047,2047,2047,2047,2047,2047,2047,2047,2047,2047,2047,2047,2047,2047,2047,2047,2047,2047,2047,2047,2047,2047,2047,2047,2047,2047,2047,2047,2047,2047,2047,2047,2047,2047,2047,2047,2047,2047,2047,2047,2047,2047,2047,2047,2047,2047,2047,2047,2047,2047,2047,2047,2047,2047,2047,2047,2047,2047,2047,2047,2047,2047,2047,2047,2047,2047,2047,2047,2047,2047,2047,2047,2047,2047,2047,2047,2047,2047,2047,2047,2047,2047,2047,2047,2047,2047,2047,2047,2047,2047,2047,2047,2047,2047,2047,2047,2047,2047,2047,2047,2047,2047,2047,2047,2047,2047,2047,2047,2047,2047,2047,2047,2047,2047,2047,2047,2047,2047,2047,2047,2047,936,936,936,936,936,936,937,937,936,937,937,936,936,936,935,935,957,957,957,957,957,957,957,957,957,957,957,980,979,979,980,943,942,942,941,940,938,937,936,936,936,933,933,933,2047,919,920,919,919,918,918,917,917,918,918,917,918,917,918,919,919,919,919,920,919,920,920,920,919,919,920,920,920,920,921,921,921,921,921,922,922,921,921,922,922,922,922,922,922,922,922,923,922,922,923,923,923,923,2047,2047,894,2047,894,894,894,894,894,893,893,892,892,892,891,890,889,889,889,889,889,889,888,887,888,886,886,885,886,886,887,887,888,888,888,888,888,888,888,886,886,885,885,885,885,885,885,885,885,885,885,885,885,884,884,883,883,882,882,882,881,880,881,882,882,882,882,882,883,883,883,882,882,882,882,884,883,884,886,885,885,885,885,885,886,885,885,885,885,885,885,885,885,885,885,885,885,885,885,885,885,885,886,886,886,886,886,886,887,887,887,887,887,888,888,888,888,888,889,889,889,889,889,889,889,889,889,890,890,890,890,890,890,890,890,890,890,900,900,899,900,900,900,900,901,917,914,914,914,914,915,915,916,917,917,917,917,918,918,942,943,943,943,942,942,943,943,944,944,944,944,944,945,945,945,945,945,945,945,945,945,945,945,945,945,945,945,945,989,945,946,946,947,947,947,947,947,947,946,947,947,946,946,947,990,948,948,948,948,948,948,948,948,948,948,947,947,949,949,950,950,951,951,951,951,951,951,953,952,951,951,951,951,951,951,951,951,952,952,953,953,951,951,952,938,938,938,938,938,938,937,937,937,936,936,935,934,934,934,933,933,933,932,931,930,930,930,929,929,928,927,926,925,925,923,923,923,923,922,922,922,922,922,923,926,926,925,925,925,925,925,925,924,924,924,2047,2047,2047,2047,2047,2047,2047,2047,2047,2047,2047,2047,2047,2047,2047,2047,925,925,925,925,925,2047,2047,2047,2047,2047,2047,2047,2047,2047,2047,2047,2047,2047,2047,2047,2047,2047,2047,2047,2047,2047,2047,2047,2047,2047,2047,2047,2047,2047,2047,2047,2047,2047,2047,2047,2047,758,758,757,755,754,753,752,752,750,747,744,742,741,740,738,736,735,734,733,732,731,730,730,729,728,727,727,725,724,723,722,721,721,721,720,2047
2047,2047,2047,2047,2047,2047,2047,2047,2047,2047,2047,2047,2047,2047,2047,2047,2047,2047,2047,2047,2047,2047,2047,2047,2047,2047,2047,2047,2047,2047,2047,2047,2047,2047,2047,2047,2047,2047,2047,2047,2047,2047,2047,2047,2047,2047,2047,2047,2047,2047,2047,2047,2047,2047,2047,2047,2047,2047,2047,2047,2047,2047,2047,2047,2047,2047,2047,2047,2047,2047,2047,2047,2047,2047,2047,2047,2047,2047,2047,2047,2047,2047,2047,2047,2047,2047,2047,2047,2047,2047,2047,2047,2047,2047,2047,2047,2047,2047,2047,2047,2047,2047,2047,2047,2047,2047,2047,2047,2047,2047,2047,2047,2047,2047,2047,2047,2047,2047,2047,2047,2047,2047,2047,2047,2047,2047,2047,2047,2047,2047,2047,2047,2047,936,936,936,937,937,937,937,937,936,937,937,936,936,935,934,934,957,957,957,957,957,957,957,957,957,957,957,979,978,978,978,943,942,942,941,940,937,937,936,936,2047,936,919,919,2047,918,919,918,919,918,918,917,917,917,918,918,918,918,918,919,919,919,919,920,920,920,920,920,920,919,920,919,920,920,921,921,921,921,921,922,922,921,921,922,922,922,922,922,922,922,922,923,922,922,922,923,922,923,923,2047,894,894,893,893,894,893,893,893,893,893,893,893,892,891,891,891,889,889,889,889,888,888,889,888,888,887,887,886,887,888,888,888,888,888,888,888,888,886,885,885,885,885,885,885,884,884,884,885,885,884,884,884,884,883,883,882,881,881,881,881,881,881,881,881,881,881,881,881,881,881,881,881,881,883,883,883,884,884,885,885,885,885,885,885,884,885,885,885,885,885,885,885,885,885,885,886,886,886,886,886,886,886,886,886,886,886,886,886,886,886,887,887,888,888,888,888,889,889,889,889,889,889,889,889,889,890,890,889,889,890,890,890,890,890,890,899,899,900,901,901,901,902,902,903,915,913,914,914,914,915,916,917,917,917,917,918,944,943,944,943,942,941,941,942,942,944,943,943,944,944,944,944,944,944,944,944,945,945,945,944,945,945,945,945,945,989,989,988,988,946,989,948,948,948,948,948,948,948,947,990,990,990,990,990,990,948,948,948,949,948,948,948,948,948,949,949,949,949,950,950,951,951,953,953,954,954,953,953,952,952,953,953,953,953,953,953,954,954,953,952,952,2047,2047,2047,2047,939,939,938,938,938,938,937,936,935,935,934,934,933,933,933,932,931,930,929,929,928,927,926,925,925,925,925,924,924,924,924,924,923,923,923,923,922,922,924,924,924,925,925,925,925,925,925,2047,2047,2047,2047,2047,2047,922,922,923,923,2047,2047,2047,2047,2047,2047,2047,2047,2047,2047,2047,2047,2047,2047,2047,2047,2047,2047,2047,2047,2047,2047,2047,2047,2047,2047,2047,2047,2047,2047,2047,2047,2047,2047,2047,2047,2047,2047,2047,2047,2047,2047,2047,2047,2047,2047,2047,2047,2047,756,755,754,754,753,752,752,750,746,744,742,740,739,737,736,735,734,733,733,732,731,730,729,728,727,726,725,724,723,722,721,721,720,720,2047
2047,2047,2047,2047,2047,2047,2047,2047,2047,2047,2047,2047,2047,2047,2047,2047,2047,2047,2047,2047,2047,2047,2047,2047,2047,2047,2047,2047,2047,2047,2047,2047,2047,2047,2047,2047,2047,2047,2047,2047,2047,2047,2047,2047,2047,2047,2047,2047,2047,2047,2047,2047,2047,2047,2047,2047,2047,2047,2047,2047,2047,2047,2047,2047,2047,2047,2047,2047,2047,2047,2047,2047,2047,2047,2047,2047,2047,2047,2047,2047,2047,2047,2047,2047,2047,2047,2047,2047,2047,2047,2047,2047,2047,2047,2047,2047,2047,2047,2047,2047,2047,923,2047,2047,2047,2047,2047,2047,2047,2047,2047,2047,2047,2047,2047,2047,2047,2047,2047,2047,2047,2047,2047,2047,2047,2047,2047,2047,2047,2047,2047,2047,2047,2047,935,936,936,936,936,936,936,936,937,937,936,937,936,936,958,959,958,958,958,957,957,957,958,957,957,957,957,957,2047,942,942,942,941,940,940,937,937,936,936,2047,2047,2047,2047,919,919,919,919,918,918,917,917,918,918,918,918,918,918,919,919,919,919,920,920,920,920,920,920,920,920,921,920,921,921,921,921,921,921,921,922,922,921,921,921,922,922,922,922,922,923,923,923,923,923,923,923,923,921,921,921,895,895,895,894,894,893,893,893,893,892,892,892,891,891,890,889,889,889,890,889,889,889,889,888,888,888,888,887,887,887,886,886,886,886,886,887,887,887,887,887,885,886,885,885,884,884,884,884,884,884,884,884,883,882,882,882,881,881,881,881,881,881,880,880,880,881,881,881,881,881,881,881,881,883,883,883,884,884,885,885,885,885,884,884,884,885,885,885,885,885,885,885,885,885,885,886,886,886,886,886,886,886,886,886,886,886,887,887,887,887,888,888,889,889,889,889,889,889,889,889,889,889,889,889,889,889,890,889,889,889,889,889,889,897,897,899,899,900,901,901,902,902,903,903,915,915,914,914,914,915,916,916,917,916,917,917,943,942,988,942,942,941,940,941,944,945,945,945,943,988,988,988,988,989,988,989,989,989,989,989,989,989,989,989,988,989,988,988,988,988,988,989,989,949,949,948,990,990,990,990,990,990,990,989,990,990,990,990,990,989,2047,2047,2047,2047,2047,950,2047,2047,950,951,958,958,957,957,956,955,954,954,953,953,953,953,953,954,954,954,954,954,953,953,953,2047,2047,2047,2047,2047,939,939,939,938,938,936,935,934,934,934,934,933,933,932,932,931,930,928,928,927,927,926,925,925,925,924,924,924,924,924,924,923,922,923,922,922,922,924,923,923,925,925,925,925,925,2047,2047,2047,2047,2047,2047,2047,2047,2047,2047,2047,2047,2047,2047,2047,2047,2047,2047,2047,2047,2047,2047,2047,2047,2047,2047,2047,2047,2047,2047,2047,2047,2047,2047,2047,2047,2047,2047,2047,2047,2047,2047,2047,2047,2047,2047,2047,2047,2047,2047,2047,2047,2047,2047,2047,2047,2047,2047,2047,758,757,756,755,754,753,752,751,749,747,744,742,741,739,738,736,735,734,733,733,732,731,730,729,728,727,726,725,724,723,722,721,720,720,719,2047
2047,2047,2047,2047,2047,2047,2047,2047,2047,2047,2047,2047,2047,2047,2047,2047,2047,2047,2047,2047,2047,2047,2047,2047,2047,2047,2047,2047,2047,2047,2047,2047,2047,2047,2047,2047,2047,2047,2047,2047,2047,2047,2047,2047,2047,2047,2047,2047,2047,2047,2047,2047,2047,2047,2047,2047,2047,2047,2047,2047,2047,2047,2047,2047,2047,2047,2047,2047,2047,2047,2047,2047,2047,2047,2047,2047,2047,2047,2047,2047,2047,2047,2047,2047,2047,2047,2047,2047,2047,2047,2047,2047,2047,2047,2047,2047,2047,2047,2047,2047,2047,2047,2047,2047,2047,2047,2047,2047,2047,2047,2047,2047,2047,2047,2047,2047,2047,2047,2047,2047,2047,2047,2047,2047,2047,2047,2047,2047,2047,2047,2047,2047,2047,2047,935,935,936,936,936,937,936,936,937,937,936,937,936,936,936,958,958,958,958,957,957,957,957,957,957,957,957,957,957,970,970,970,970,970,970,969,937,936,936,2047,2047,2047,2047,919,919,919,918,918,918,917,917,917,917,917,918,917,918,918,918,919,919,919,920,920,920,920,920,920,920,920,920,921,920,921,921,921,921,921,922,922,922,921,921,922,922,922,922,922,923,923,923,923,921,921,921,921,920,920,893,895,895,895,894,893,893,893,893,893,892,892,892,892,891,890,889,889,889,889,889,889,889,889,888,888,889,888,888,887,887,886,886,886,886,886,886,887,886,886,886,885,885,884,885,884,884,884,884,885,884,884,884,883,883,882,882,881,881,881,881,880,880,880,880,880,880,880,881,881,881,881,881,882,883,883,884,884,884,884,885,884,884,884,885,884,885,885,885,885,885,885,885,885,885,885,886,886,886,886,886,886,887,887,887,887,887,887,888,888,887,889,889,889,889,889,889,889,889,888,889,889,889,889,889,889,889,890,889,889,889,889,891,2047,2047,897,897,899,900,901,902,902,902,903,904,906,913,913,914,914,914,915,916,916,915,916,916,943,988,988,988,988,987,987,987,986,945,945,986,987,988,988,988,988,988,988,988,989,989,989,989,989,989,989,989,988,988,988,988,988,988,989,989,989,989,989,990,989,989,989,989,990,990,990,989,990,990,990,990,990,989,989,989,990,2047,2047,2047,2047,2047,2047,958,958,958,958,958,958,957,956,956,956,956,956,956,956,956,956,956,955,954,954,953,953,2047,2047,2047,2047,2047,939,939,938,938,937,935,934,934,934,933,933,933,933,932,931,930,929,928,928,927,927,926,925,925,925,924,924,924,924,924,923,923,923,923,923,922,924,924,923,924,925,925,925,925,925,2047,2047,2047,2047,2047,2047,2047,2047,2047,2047,2047,2047,2047,2047,2047,2047,2047,2047,2047,2047,2047,2047,2047,2047,2047,2047,2047,2047,2047,2047,2047,2047,2047,2047,2047,2047,2047,2047,2047,2047,2047,2047,2047,2047,2047,2047,2047,2047,2047,2047,2047,2047,2047,2047,2047,2047,2047,2047,758,757,757,756,755,754,753,752,751,749,747,743,742,741,740,738,736,735,734,733,733,731,731,730,729,728,727,726,725,723,722,722,721,719,719,718,2047
2047,2047,2047,2047,2047,2047,2047,2047,2047,2047,2047,2047,2047,2047,2047,2047,2047,2047,2047,2047,2047,2047,2047,2047,2047,2047,2047,2047,2047,2047,2047,2047,2047,2047,2047,2047,2047,2047,2047,2047,2047,2047,2047,2047,2047,2047,2047,2047,2047,2047,2047,2047,2047,2047,2047,2047,2047,2047,2047,2047,2047,2047,2047,2047,2047,2047,2047,2047,2047,2047,2047,2047,2047,2047,2047,2047,2047,2047,2047,2047,2047,2047,2047,2047,2047,2047,2047,2047,2047,2047,2047,2047,2047,2047,2047,2047,2047,2047,2047,2047,2047,2047,2047,2047,2047,2047,2047,2047,2047,2047,2047,2047,2047,2047,2047,2047,2047,2047,2047,2047,2047,2047,2047,2047,2047,2047,2047,2047,2047,2047,2047,2047,2047,2047,2047,936,936,936,936,936,936,936,936,936,936,936,936,936,958,958,958,957,958,957,957,957,957,957,957,957,957,957,957,970,970,970,970,970,969,969,968,936,2047,2047,2047,2047,2047,919,919,919,918,918,917,917,917,917,918,918,918,917,917,917,918,918,919,919,920,969,969,920,920,920,920,920,920,920,920,921,921,921,921,922,922,922,922,922,922,922,922,922,922,922,923,923,923,923,921,921,921,920,919,919,893,893,894,893,894,893,893,893,893,893,892,892,892,892,891,890,889,889,889,889,889,889,889,889,888,889,889,888,888,887,887,886,886,887,887,886,887,887,886,886,886,885,885,885,885,884,884,884,885,885,885,885,885,884,883,883,883,882,881,881,880,880,879,879,879,879,879,879,880,880,881,881,882,882,883,883,883,883,883,884,884,884,884,884,885,885,885,885,885,885,885,885,885,885,885,885,886,886,886,886,886,886,887,887,887,887,887,887,888,888,887,888,888,888,888,888,888,888,888,888,888,889,889,888,888,889,889,889,889,889,889,890,891,891,2047,896,898,898,901,902,902,902,902,903,904,906,912,913,914,914,915,915,915,916,915,916,915,914,989,988,988,988,988,987,987,987,986,987,987,988,988,988,988,988,988,988,989,989,989,989,989,989,989,989,989,988,988,988,989,988,989,989,989,989,989,989,990,989,989,990,990,990,990,990,989,990,990,990,990,990,990,990,990,990,2047,2047,2047,2047,2047,2047,959,959,958,959,958,958,957,957,957,957,957,956,956,956,957,957,956,955,955,954,954,953,952,2047,2047,2047,2047,2047,2047,938,937,936,934,934,933,933,933,933,933,932,931,931,930,929,928,928,927,927,926,926,925,925,924,924,924,924,924,923,923,923,923,922,923,923,923,923,922,922,923,924,925,925,2047,2047,2047,2047,2047,2047,2047,2047,2047,2047,2047,2047,2047,2047,2047,2047,2047,2047,2047,2047,2047,2047,2047,2047,2047,2047,2047,2047,2047,2047,2047,2047,2047,2047,2047,2047,2047,2047,2047,2047,2047,2047,2047,2047,2047,2047,2047,2047,2047,2047,2047,2047,2047,2047,2047,2047,2047,759,758,757,757,756,755,754,753,752,751,747,745,743,741,741,739,738,737,735,734,734,733,732,731,730,729,728,727,725,724,723,722,721,720,719,718,718,2047
2047,2047,2047,2047,2047,2047,2047,2047,2047,2047,2047,2047,2047,2047,2047,2047,2047,2047,2047,2047,2047,2047,2047,2047,2047,2047,2047,2047,2047,2047,2047,2047,2047,2047,2047,2047,2047,2047,2047,2047,2047,2047,2047,2047,2047,2047,2047,2047,2047,2047,2047,2047,2047,2047,2047,2047,2047,2047,2047,2047,2047,2047,2047,2047,2047,2047,2047,2047,2047,2047,2047,2047,2047,2047,2047,2047,2047,2047,2047,2047,2047,2047,2047,2047,2047,2047,2047,2047,2047,2047,2047,2047,2047,2047,2047,2047,2047,2047,2047,2047,2047,2047,2047,2047,2047,2047,2047,2047,2047,2047,2047,2047,2047,2047,2047,2047,2047,2047,2047,2047,2047,2047,2047,2047,2047,2047,2047,2047,2047,2047,2047,2047,2047,2047,2047,935,936,936,936,936,936,936,936,936,936,936,936,936,936,960,958,958,958,957,957,957,957,957,957,957,958,957,957,970,970,969,970,969,969,969,968,937,2047,2047,2047,2047,2047,919,919,919,918,918,917,918,917,918,917,918,918,918,918,918,919,917,919,919,920,970,970,970,970,972,972,972,973,972,972,921,921,921,922,922,923,922,923,923,924,924,923,922,922,923,924,923,923,922,921,921,921,921,920,2047,893,893,893,893,893,893,893,893,893,893,893,892,892,892,891,890,889,889,889,889,889,889,889,889,889,889,889,889,888,888,887,887,887,887,887,887,887,887,887,886,886,885,885,885,884,884,884,885,885,885,885,885,885,884,884,883,883,881,881,880,880,879,878,878,878,878,878,878,879,879,880,881,881,882,883,883,884,884,884,884,884,884,884,885,885,885,885,885,885,885,885,885,885,885,885,885,886,886,886,886,886,886,887,887,887,887,887,887,887,887,887,888,888,888,888,888,888,888,888,888,888,889,889,889,889,889,889,890,889,889,890,890,891,891,894,896,896,897,898,901,902,902,903,903,905,906,912,913,914,914,915,915,915,915,914,915,914,913,990,988,988,988,988,988,988,987,987,987,988,988,988,988,988,988,988,988,989,989,989,989,988,989,989,989,989,989,989,989,989,989,989,989,989,989,989,990,990,989,989,989,989,990,990,990,989,990,990,990,990,990,989,989,989,989,989,989,2047,2047,2047,959,959,959,959,959,958,958,957,957,957,957,957,957,957,957,957,957,956,955,955,954,954,953,2047,2047,2047,2047,2047,2047,2047,2047,936,935,934,933,933,933,933,932,932,931,930,930,930,929,930,928,927,927,926,925,925,924,924,923,924,924,923,923,923,923,923,923,922,923,923,922,922,922,922,923,925,925,2047,2047,2047,2047,2047,2047,2047,2047,2047,2047,2047,2047,2047,2047,2047,2047,2047,2047,2047,2047,2047,2047,2047,2047,2047,2047,2047,2047,2047,2047,2047,2047,2047,2047,2047,2047,2047,2047,2047,2047,2047,2047,2047,2047,2047,2047,2047,2047,2047,2047,2047,2047,2047,2047,2047,759,758,758,758,757,757,756,755,754,753,752,747,746,744,743,742,741,739,737,736,735,734,733,733,732,731,730,729,728,726,725,724,722,721,721,719,719,718,718,2047
2047,2047,2047,2047,2047,2047,2047,2047,2047,2047,2047,2047,2047,2047,2047,2047,2047,2047,2047,2047,2047,2047,2047,2047,2047,2047,2047,2047,2047,2047,2047,2047,2047,2047,2047,2047,2047,2047,2047,2047,2047,2047,2047,2047,2047,2047,2047,2047,2047,2047,2047,2047,2047,2047,2047,2047,2047,2047,2047,2047,2047,2047,2047,2047,2047,2047,2047,2047,2047,2047,2047,2047,2047,2047,2047,2047,2047,2047,2047,2047,2047,2047,2047,2047,2047,2047,2047,2047,2047,2047,2047,2047,2047,2047,2047,2047,2047,2047,2047,2047,2047,2047,2047,2047,2047,2047,2047,2047,2047,2047,2047,2047,2047,2047,2047,2047,2047,2047,2047,2047,2047,2047,2047,2047,2047,2047,2047,2047,2047,2047,2047,2047,2047,2047,2047,936,936,936,936,936,936,936,936,936,936,936,936,936,961,960,958,958,957,957,957,957,957,957,957,958,959,958,968,969,969,969,969,969,969,969,968,2047,2047,2047,2047,2047,2047,919,919,919,918,918,917,917,917,917,917,917,917,917,917,917,918,917,919,919,920,971,971,971,971,972,973,972,973,972,972,972,972,971,922,922,923,923,924,924,924,924,924,924,924,924,925,923,924,922,920,2047,2047,2047,2047,2047,893,893,893,893,893,893,893,893,893,893,893,892,892,892,891,890,889,889,888,889,889,889,889,889,889,889,889,889,888,888,888,888,887,887,886,886,887,887,886,886,886,885,885,884,884,884,884,884,884,884,885,885,885,884,884,883,883,882,881,880,880,879,877,877,877,877,877,877,878,878,879,880,881,881,883,883,883,883,883,883,883,883,884,885,885,885,885,885,885,885,885,885,885,885,885,885,886,886,886,886,886,886,887,887,886,887,886,887,887,887,887,888,888,888,888,887,888,888,888,887,888,888,889,889,889,889,890,890,890,890,890,890,890,891,894,895,895,897,898,902,902,903,903,904,905,906,913,913,914,914,915,914,914,914,913,914,913,910,990,989,988,988,989,989,988,987,988,988,988,988,988,988,989,989,989,989,989,989,989,989,988,989,989,989,989,989,989,989,989,989,989,989,989,989,989,989,990,990,989,990,990,990,990,990,990,990,990,989,990,989,989,989,989,989,989,2047,2047,2047,2047,961,960,960,959,959,958,958,958,957,957,957,957,957,957,957,957,957,956,955,956,956,954,953,2047,2047,2047,2047,2047,2047,2047,2047,935,934,933,933,933,932,932,932,931,930,930,930,929,929,928,928,927,927,926,925,925,924,924,924,925,924,924,923,923,2047,2047,923,2047,923,923,922,922,922,922,923,925,925,2047,2047,2047,2047,2047,2047,2047,2047,2047,2047,2047,2047,2047,2047,2047,2047,2047,2047,2047,2047,2047,2047,2047,2047,2047,2047,2047,2047,2047,2047,2047,2047,2047,2047,2047,2047,2047,2047,2047,2047,2047,2047,2047,2047,2047,2047,2047,2047,2047,2047,2047,2047,2047,2047,2047,758,758,758,757,757,756,756,754,753,751,750,747,746,744,743,742,741,739,737,736,735,734,734,733,732,731,730,729,727,726,725,724,722,721,720,719,719,718,718,2047
2047,2047,2047,2047,2047,2047,2047,2047,2047,2047,2047,2047,2047,2047,2047,2047,2047,2047,2047,2047,2047,2047,2047,2047,2047,2047,2047,2047,2047,2047,2047,2047,2047,2047,2047,2047,2047,2047,2047,2047,2047,2047,2047,2047,2047,2047,2047,2047,2047,2047,2047,2047,2047,2047,2047,2047,2047,2047,2047,2047,2047,2047,2047,2047,2047,2047,2047,2047,2047,2047,2047,2047,2047,2047,2047,2047,2047,2047,2047,2047,2047,2047,2047,2047,2047,2047,2047,2047,2047,2047,2047,2047,2047,2047,2047,2047,2047,2047,2047,2047,2047,2047,2047,2047,2047,2047,2047,2047,2047,2047,2047,2047,2047,2047,2047,2047,2047,2047,2047,2047,2047,2047,2047,2047,2047,2047,2047,2047,2047,2047,2047,2047,2047,2047,2047,2047,2047,2047,936,936,936,936,937,936,936,936,937,936,961,960,959,958,958,958,957,957,957,957,958,958,959,960,968,969,969,969,969,969,969,969,968,968,968,2047,2047,2047,2047,920,920,918,918,918,917,917,917,917,917,917,917,917,917,917,917,917,917,972,972,972,971,972,972,973,973,972,973,972,972,971,972,971,971,971,970,970,925,925,970,971,971,971,971,924,924,923,923,921,2047,2047,2047,2047,2047,2047,2047,2047,893,893,893,893,893,893,893,893,892,892,891,891,891,890,889,889,889,889,889,889,889,889,889,890,889,889,888,888,888,888,887,887,886,886,887,887,885,885,886,885,885,885,884,884,885,885,884,885,885,885,885,885,884,884,883,882,881,880,878,877,877,877,877,877,877,877,877,877,877,878,879,880,882,882,883,883,883,883,883,883,884,884,885,885,885,885,885,885,885,885,885,885,885,886,886,886,886,886,886,886,886,886,886,887,887,887,888,887,887,888,888,888,888,888,888,888,888,888,888,888,889,889,889,889,890,890,890,889,889,889,889,890,890,890,898,898,900,901,902,902,902,903,904,906,914,914,914,915,915,915,915,915,915,917,989,990,989,989,989,989,989,989,988,988,988,988,988,988,988,988,988,988,989,989,989,989,989,989,989,989,989,989,989,989,989,989,989,989,990,989,989,989,989,989,989,990,990,990,990,990,990,990,990,990,990,990,990,990,990,990,990,989,990,2047,961,961,960,960,960,959,959,958,958,958,958,958,957,957,957,957,957,957,957,957,956,956,956,956,956,954,2047,2047,2047,2047,2047,2047,2047,933,933,932,932,932,932,932,932,931,930,930,930,930,929,929,929,928,927,927,926,926,925,924,925,923,923,923,923,923,923,923,923,923,923,922,923,923,923,923,925,925,925,925,925,925,925,925,925,925,926,926,926,925,926,926,925,925,2047,2047,2047,2047,2047,2047,2047,2047,2047,2047,2047,2047,2047,2047,2047,2047,2047,2047,2047,2047,2047,2047,2047,2047,2047,2047,2047,2047,2047,2047,2047,2047,2047,2047,2047,2047,2047,2047,2047,2047,2047,2047,2047,758,757,757,757,756,754,751,749,747,746,745,744,743,742,741,739,738,736,735,734,733,733,732,731,730,729,728,727,726,725,723,722,721,720,719,719,718,2047
2047,2047,2047,2047,2047,2047,2047,2047,2047,2047,2047,2047,2047,2047,2047,2047,2047,2047,2047,2047,2047,2047,2047,2047,2047,2047,2047,2047,2047,2047,2047,2047,2047,2047,2047,2047,2047,2047,2047,2047,2047,2047,2047,2047,2047,2047,2047,2047,2047,2047,2047,2047,2047,2047,2047,2047,2047,2047,2047,2047,2047,2047,2047,2047,2047,2047,2047,2047,2047,2047,2047,2047,2047,2047,2047,2047,2047,2047,2047,2047,2047,2047,2047,2047,2047,2047,2047,2047,2047,2047,2047,2047,2047,2047,2047,2047,2047,2047,2047,2047,2047,2047,2047,2047,2047,2047,2047,2047,2047,2047,2047,2047,2047,2047,2047,2047,2047,2047,2047,2047,2047,2047,2047,2047,2047,2047,2047,2047,2047,2047,2047,2047,2047,2047,2047,2047,2047,2047,937,937,937,937,937,937,937,937,937,960,960,960,959,958,958,958,957,957,957,957,957,958,961,965,967,968,968,969,970,969,969,969,969,969,2047,2047,2047,2047,2047,2047,918,918,917,917,917,917,917,917,917,917,918,917,917,917,917,917,916,916,972,972,971,972,971,972,972,972,972,972,972,972,972,972,971,972,972,972,972,972,972,972,973,972,972,973,2047,2047,2047,2047,2047,2047,2047,2047,2047,2047,2047,2047,2047,2047,2047,894,893,893,893,892,892,892,892,891,891,891,890,890,890,890,890,890,890,889,889,889,889,889,888,887,887,887,887,887,886,886,886,886,886,886,885,886,886,885,885,885,885,885,885,885,885,885,884,884,884,881,879,878,878,878,877,877,877,876,877,877,877,877,877,877,877,877,878,880,882,883,883,884,885,885,885,885,884,884,885,885,885,884,885,885,885,885,885,886,886,886,886,886,886,886,886,886,886,887,888,888,887,887,888,887,887,887,887,887,887,887,888,888,889,890,890,890,890,890,890,890,889,889,890,890,889,889,890,890,890,2047,899,899,901,901,902,902,902,903,905,907,914,914,914,914,915,915,915,915,915,918,989,989,989,988,988,988,989,988,988,987,987,987,988,988,988,988,988,988,988,989,989,989,989,989,989,989,989,989,989,989,989,989,989,989,989,990,990,990,990,990,989,990,990,990,990,990,990,990,990,990,990,990,990,989,989,990,989,989,989,2047,961,960,960,960,959,959,958,958,958,958,958,958,957,957,957,957,957,957,957,956,956,956,955,955,954,954,2047,2047,2047,2047,2047,2047,933,932,932,932,932,932,932,931,931,931,930,930,929,930,929,929,927,927,926,927,926,925,925,924,922,922,923,923,923,923,923,923,924,924,924,923,924,924,924,924,924,924,924,925,925,925,925,925,925,925,925,925,926,925,926,926,925,2047,2047,2047,2047,2047,2047,2047,2047,2047,2047,2047,2047,2047,2047,2047,2047,2047,2047,2047,2047,2047,2047,2047,2047,2047,2047,2047,2047,2047,2047,2047,2047,2047,2047,2047,2047,2047,2047,2047,2047,2047,2047,2047,2047,2047,756,756,756,756,749,748,748,746,745,744,743,743,742,742,740,738,737,736,735,734,733,731,731,730,729,727,726,725,724,723,722,722,721,719,719,718,2047
2047,2047,2047,2047,2047,2047,2047,2047,2047,2047,2047,2047,2047,2047,2047,2047,2047,2047,2047,2047,2047,2047,2047,2047,2047,2047,2047,2047,2047,2047,2047,2047,2047,2047,2047,2047,2047,2047,2047,2047,2047,2047,2047,2047,2047,2047,2047,2047,2047,2047,2047,2047,2047,2047,2047,2047,2047,2047,2047,2047,2047,2047,2047,2047,2047,2047,2047,2047,2047,2047,2047,2047,2047,2047,2047,2047,2047,2047,2047,2047,2047,2047,2047,2047,2047,2047,2047,2047,2047,2047,2047,2047,2047,2047,2047,2047,2047,2047,2047,2047,2047,2047,2047,2047,2047,2047,2047,2047,2047,2047,2047,2047,2047,2047,2047,2047,2047,2047,2047,2047,2047,2047,2047,2047,2047,2047,2047,2047,2047,2047,2047,2047,2047,2047,2047,2047,2047,2047,2047,2047,937,937,937,937,2047,2047,2047,961,960,960,959,958,958,958,957,957,957,957,957,958,961,964,966,968,968,970,970,969,969,969,969,969,2047,2047,2047,2047,2047,2047,918,918,917,918,917,917,917,917,917,917,917,917,917,917,917,917,916,916,972,972,971,972,972,972,972,972,972,972,972,972,972,972,972,972,972,972,972,973,973,973,973,973,973,973,2047,2047,2047,2047,2047,2047,2047,2047,2047,2047,2047,2047,2047,2047,2047,894,893,893,893,892,892,892,892,892,891,891,890,890,890,890,890,890,890,890,889,889,889,889,888,888,888,887,887,886,886,886,885,885,885,885,885,885,886,885,885,886,885,885,885,885,885,885,885,884,884,881,879,878,878,878,877,877,877,876,877,877,877,877,877,876,877,877,877,878,882,883,884,885,885,886,885,885,884,884,884,884,885,885,885,885,885,885,885,885,886,886,886,886,886,886,886,886,886,887,887,888,887,887,888,886,886,886,887,887,887,887,888,888,889,890,890,889,890,890,890,890,890,890,890,890,890,890,890,890,890,893,900,900,901,901,902,902,902,904,904,914,914,914,914,914,914,914,914,914,918,918,989,989,989,988,988,988,989,988,988,987,987,987,987,988,988,988,988,988,989,989,989,989,989,989,989,989,989,989,989,989,989,989,989,990,989,990,990,990,990,990,989,990,990,990,990,990,990,990,990,990,990,989,990,989,989,989,989,989,989,2047,961,960,960,959,959,959,958,958,958,958,957,957,957,957,957,956,956,956,956,956,956,956,955,954,954,954,2047,2047,2047,2047,2047,934,932,932,932,932,932,931,931,931,931,930,930,930,929,929,929,929,929,927,926,926,925,925,925,924,923,922,922,923,923,922,923,923,924,924,924,924,924,923,923,924,924,924,924,924,924,925,925,925,925,925,925,926,925,925,925,925,925,925,2047,2047,2047,2047,2047,2047,2047,2047,2047,2047,2047,2047,2047,2047,2047,2047,2047,2047,2047,2047,2047,2047,2047,2047,2047,2047,2047,2047,2047,2047,2047,2047,2047,2047,2047,2047,2047,2047,2047,2047,2047,2047,2047,2047,756,755,755,755,749,749,747,745,744,743,743,742,742,741,740,738,737,736,734,733,731,731,730,730,729,728,726,726,725,723,723,722,721,719,718,718,2047
2047,2047,2047,2047,2047,2047,2047,2047,2047,2047,2047,2047,2047,2047,2047,2047,2047,2047,2047,2047,2047,2047,2047,2047,2047,2047,2047,2047,2047,2047,2047,2047,2047,2047,2047,2047,2047,2047,2047,2047,2047,2047,2047,2047,2047,2047,2047,2047,2047,2047,2047,2047,2047,2047,2047,2047,2047,2047,2047,2047,2047,2047,2047,2047,2047,2047,2047,2047,2047,2047,2047,2047,2047,2047,2047,2047,2047,2047,2047,2047,2047,2047,2047,2047,2047,2047,2047,2047,2047,2047,2047,2047,2047,2047,2047,2047,2047,2047,2047,2047,2047,2047,2047,2047,2047,2047,2047,2047,2047,2047,2047,2047,2047,2047,2047,2047,2047,2047,2047,2047,2047,2047,2047,2047,2047,2047,2047,2047,2047,2047,2047,2047,2047,2047,2047,2047,2047,2047,2047,2047,2047,2047,937,2047,2047,2047,2047,2047,960,960,958,958,958,957,957,957,957,957,957,958,961,965,967,968,968,970,969,969,969,969,969,969,2047,2047,2047,2047,2047,2047,918,918,917,918,917,917,917,917,917,917,918,917,917,917,917,917,916,973,972,972,972,972,972,972,972,972,972,972,972,972,972,972,972,972,972,972,972,973,973,973,973,973,973,973,2047,2047,2047,2047,2047,2047,2047,2047,2047,2047,2047,2047,2047,2047,2047,894,894,893,893,893,892,893,892,891,891,891,890,890,890,890,890,890,890,890,890,889,889,889,888,887,887,887,887,886,886,886,885,885,885,885,885,886,886,886,886,886,886,886,885,885,885,885,884,883,882,879,878,878,878,877,877,877,877,877,877,877,877,877,877,876,877,877,877,877,882,883,884,885,885,886,886,885,885,884,885,885,885,885,885,885,885,885,886,886,886,886,886,886,886,886,886,886,887,887,887,887,887,887,888,888,887,887,886,887,887,887,887,888,888,890,890,889,889,890,890,890,890,890,890,890,890,890,891,891,892,893,893,900,901,901,902,902,902,902,914,914,914,914,914,914,914,914,914,914,987,988,988,988,988,988,988,988,989,988,988,987,989,988,988,988,988,988,988,988,989,989,989,989,989,989,988,989,989,989,989,989,989,989,990,989,990,990,990,990,990,990,990,990,990,990,990,990,990,990,990,990,989,990,990,989,989,989,989,989,989,961,961,960,959,959,959,959,958,958,958,958,958,957,957,957,957,956,957,956,956,955,956,956,955,954,954,954,2047,2047,2047,932,2047,933,932,932,932,931,931,931,931,931,930,930,930,930,930,929,929,929,929,927,926,926,925,925,925,924,924,923,923,923,923,923,923,925,925,925,925,925,925,925,924,924,924,924,923,924,924,925,925,925,925,924,925,925,925,925,924,925,925,925,925,925,2047,2047,2047,2047,2047,2047,2047,2047,2047,2047,2047,2047,2047,2047,2047,2047,2047,2047,2047,2047,2047,2047,2047,2047,2047,2047,2047,2047,2047,2047,2047,2047,2047,2047,2047,2047,2047,2047,2047,2047,2047,2047,2047,754,754,746,746,745,745,743,743,742,742,741,741,741,739,738,736,735,734,732,731,730,730,729,728,727,726,725,724,723,722,721,720,719,718,717,2047
2047,2047,2047,2047,2047,2047,2047,2047,2047,2047,2047,2047,2047,2047,2047,2047,2047,2047,2047,2047,2047,2047,2047,2047,2047,2047,2047,2047,2047,2047,2047,2047,2047,2047,2047,2047,2047,2047,2047,2047,2047,2047,2047,2047,2047,2047,2047,2047,2047,2047,2047,2047,2047,2047,2047,2047,2047,2047,2047,2047,2047,2047,2047,2047,2047,2047,2047,2047,2047,2047,2047,2047,2047,2047,2047,2047,2047,2047,2047,2047,2047,2047,2047,2047,2047,2047,2047,2047,2047,2047,2047,2047,2047,2047,2047,2047,2047,2047,2047,2047,2047,2047,2047,2047,2047,2047,2047,2047,2047,2047,2047,2047,2047,2047,2047,2047,2047,2047,2047,2047,2047,2047,2047,2047,2047,2047,2047,2047,2047,2047,2047,2047,2047,2047,2047,2047,2047,2047,2047,2047,2047,2047,2047,2047,2047,2047,2047,2047,959,959,958,958,957,957,957,957,957,957,957,957,958,965,966,968,968,970,970,969,969,969,969,968,2047,2047,2047,2047,2047,2047,918,918,917,918,917,917,917,917,917,917,918,917,917,917,917,917,916,972,972,972,972,972,972,972,972,972,972,972,972,972,972,972,972,972,972,972,972,973,973,973,973,973,972,972,2047,2047,2047,2047,2047,2047,2047,2047,2047,2047,2047,2047,2047,2047,2047,894,893,893,893,893,893,892,892,892,891,890,890,890,890,890,890,890,890,890,889,889,889,889,888,887,887,887,887,886,886,886,886,886,886,886,886,885,887,886,886,886,886,886,885,885,885,884,884,882,880,879,879,878,878,878,877,877,877,877,877,877,877,877,877,877,877,877,877,878,882,883,883,885,885,886,886,885,885,885,885,885,885,885,885,885,886,886,885,886,886,886,886,886,886,886,886,886,886,887,887,887,887,887,888,888,887,886,886,887,888,887,888,888,889,889,889,888,889,890,890,890,890,890,890,891,891,891,891,892,893,894,894,900,901,902,902,902,903,903,914,914,915,914,915,914,914,914,913,913,988,988,989,989,989,989,988,989,989,988,988,987,988,988,988,988,988,988,988,988,988,989,988,989,989,989,989,989,989,989,989,989,989,990,990,990,990,990,990,990,990,990,990,990,990,990,990,990,990,990,990,990,989,990,990,989,989,989,989,989,2047,961,961,960,959,959,959,959,958,958,958,958,957,957,957,957,957,957,956,956,956,955,956,956,955,955,955,2047,2047,2047,2047,2047,932,931,931,931,931,931,931,931,931,930,930,930,930,930,929,929,929,929,929,927,927,926,926,925,925,925,923,923,922,922,923,923,923,924,925,925,925,925,924,924,924,923,923,923,923,923,923,924,925,924,924,925,924,925,925,924,924,924,925,925,925,925,2047,924,2047,2047,2047,2047,2047,2047,2047,2047,2047,2047,2047,2047,2047,2047,2047,2047,2047,2047,2047,2047,2047,2047,2047,2047,2047,2047,2047,2047,2047,2047,2047,2047,2047,2047,2047,2047,2047,2047,2047,2047,2047,751,751,746,746,746,745,743,742,741,741,741,741,740,738,737,736,734,733,731,730,729,729,729,728,727,726,725,724,722,722,721,720,719,718,717,2047
2047,2047,2047,2047,2047,2047,2047,2047,2047,2047,2047,2047,2047,2047,2047,2047,2047,2047,2047,2047,2047,2047,2047,2047,2047,2047,2047,2047,2047,2047,2047,2047,2047,2047,2047,2047,2047,2047,2047,2047,2047,2047,2047,2047,2047,2047,2047,2047,2047,2047,2047,2047,2047,2047,2047,2047,2047,2047,2047,2047,2047,2047,2047,2047,2047,2047,2047,2047,2047,2047,2047,2047,2047,2047,2047,2047,2047,2047,2047,2047,2047,2047,2047,2047,2047,2047,2047,2047,2047,2047,2047,2047,2047,2047,2047,2047,2047,2047,2047,2047,2047,2047,2047,2047,2047,2047,2047,2047,2047,2047,2047,2047,2047,2047,2047,2047,2047,2047,2047,2047,2047,2047,2047,2047,2047,2047,2047,2047,2047,2047,2047,2047,2047,2047,2047,2047,2047,2047,2047,2047,2047,2047,2047,2047,2047,2047,2047,2047,958,959,957,957,957,957,957,957,957,957,957,957,958,964,967,968,968,970,970,969,968,969,968,968,2047,2047,2047,2047,2047,2047,918,918,917,918,918,917,917,917,917,917,918,917,917,917,917,917,917,972,972,972,972,972,972,972,972,972,972,972,972,972,972,972,972,972,972,972,972,973,973,973,973,973,972,973,2047,2047,2047,2047,2047,2047,2047,2047,2047,2047,2047,2047,2047,2047,2047,894,894,894,894,894,893,892,892,892,891,890,889,890,890,890,890,890,891,891,891,890,889,889,888,888,888,887,887,886,886,886,885,886,886,886,886,886,887,886,885,885,885,885,885,885,885,885,880,880,880,879,878,878,878,878,877,877,877,877,877,877,877,877,877,876,877,877,877,878,881,882,882,886,886,886,886,885,885,884,885,885,885,885,885,885,885,885,885,885,886,886,886,886,886,886,886,886,886,886,886,887,887,887,888,888,888,887,887,887,888,887,888,888,889,889,889,888,889,889,889,890,890,890,891,892,891,891,892,892,893,894,894,900,901,901,901,902,902,913,914,914,915,914,915,915,915,914,914,917,917,988,988,988,988,988,987,988,988,988,988,987,988,988,988,988,987,987,988,988,988,987,988,988,989,989,989,989,989,989,989,989,989,989,989,989,990,990,990,990,990,990,989,990,990,990,989,990,990,990,990,990,989,990,990,989,989,989,989,2047,2047,2047,959,959,959,959,959,959,958,958,958,958,958,957,957,957,957,957,956,956,955,954,955,955,955,954,954,937,2047,935,935,933,932,931,931,931,931,931,931,930,930,930,930,930,930,930,930,930,929,929,928,928,927,927,926,925,925,924,923,923,923,923,923,924,924,925,925,925,925,925,924,924,924,923,923,923,922,923,923,924,924,924,924,924,925,925,925,925,924,926,926,926,926,925,925,925,925,2047,2047,2047,2047,2047,2047,2047,2047,2047,2047,2047,2047,2047,2047,2047,2047,2047,2047,2047,2047,2047,2047,2047,2047,2047,2047,2047,2047,2047,2047,2047,2047,2047,2047,2047,2047,2047,2047,2047,2047,751,750,750,746,746,744,743,742,741,741,741,740,740,738,737,735,733,731,730,730,729,729,729,728,727,726,725,724,723,722,721,720,719,718,717,2047
2047,2047,2047,2047,2047,2047,2047,2047,2047,2047,2047,2047,2047,2047,2047,2047,2047,2047,2047,2047,2047,2047,2047,2047,2047,2047,2047,2047,2047,2047,2047,2047,2047,2047,2047,2047,2047,2047,2047,2047,2047,2047,2047,2047,2047,2047,2047,2047,2047,2047,2047,2047,2047,2047,2047,2047,2047,2047,2047,2047,2047,2047,2047,2047,2047,2047,2047,2047,2047,2047,2047,2047,2047,2047,2047,2047,2047,2047,2047,2047,2047,2047,2047,2047,2047,2047,2047,2047,2047,2047,2047,2047,2047,2047,2047,2047,2047,2047,2047,2047,2047,2047,2047,2047,2047,2047,2047,2047,2047,2047,2047,2047,2047,2047,2047,2047,2047,2047,2047,2047,2047,2047,2047,2047,2047,2047,2047,2047,2047,2047,2047,2047,2047,2047,2047,2047,2047,2047,2047,2047,2047,2047,2047,2047,2047,2047,2047,2047,2047,959,957,958,957,957,957,957,957,957,957,957,957,957,967,968,969,969,970,969,968,969,968,968,2047,2047,2047,2047,2047,2047,918,918,917,918,918,917,917,917,917,917,918,918,918,917,917,917,917,972,972,972,972,972,972,972,972,972,972,972,972,972,973,972,972,972,972,972,972,973,973,973,973,973,972,973,2047,2047,2047,2047,2047,2047,2047,2047,2047,2047,2047,2047,2047,2047,895,895,894,894,894,894,893,892,891,891,891,890,890,890,890,889,890,890,890,890,891,891,889,889,888,888,888,887,887,887,886,886,886,886,886,886,886,885,886,885,885,885,885,885,885,885,885,885,885,878,878,878,878,878,878,878,878,878,877,877,877,877,877,877,877,877,877,877,877,879,881,882,882,886,886,886,886,886,885,885,885,885,885,885,885,885,885,885,886,885,886,886,886,886,886,886,886,886,885,886,886,887,887,887,888,888,888,888,888,888,888,888,888,888,889,889,889,889,889,890,890,890,890,890,891,892,892,892,892,892,892,901,901,901,901,902,901,901,901,914,914,914,914,914,915,915,914,914,914,914,988,988,988,988,987,987,987,988,988,988,988,988,988,988,988,988,988,987,988,988,987,987,988,988,989,989,989,989,989,989,989,989,989,989,989,989,989,990,990,990,990,990,989,990,990,990,989,990,990,990,990,989,989,990,989,989,989,989,989,989,2047,961,961,958,958,958,958,958,958,958,958,958,958,958,957,957,957,957,956,955,955,954,955,955,955,955,955,937,937,936,935,934,933,931,930,931,931,931,931,930,930,930,930,930,930,930,930,930,929,929,928,928,927,927,926,925,925,924,924,923,923,923,923,924,924,924,925,925,925,925,924,924,924,924,923,923,922,923,923,924,925,924,924,924,924,924,924,925,925,925,925,925,926,926,926,925,925,2047,2047,2047,2047,2047,2047,2047,2047,2047,2047,2047,2047,2047,2047,2047,2047,2047,2047,2047,2047,2047,2047,2047,2047,2047,2047,2047,2047,2047,2047,2047,2047,2047,2047,2047,2047,2047,2047,2047,2047,751,751,749,746,747,745,743,742,742,741,740,740,739,738,737,735,734,733,731,730,730,730,729,728,727,726,725,723,722,722,721,721,719,719,718,2047
2047,2047,2047,2047,2047,2047,2047,2047,2047,2047,2047,2047,2047,2047,2047,2047,2047,2047,2047,2047,2047,2047,2047,2047,2047,2047,2047,2047,2047,2047,2047,2047,2047,2047,2047,2047,2047,2047,2047,2047,2047,2047,2047,2047,2047,2047,2047,2047,2047,2047,2047,2047,2047,2047,2047,2047,2047,2047,2047,2047,2047,2047,2047,2047,2047,2047,2047,2047,2047,2047,2047,2047,2047,2047,2047,2047,2047,2047,2047,2047,2047,2047,2047,2047,2047,2047,2047,2047,2047,2047,2047,2047,2047,2047,2047,2047,2047,2047,2047,2047,2047,2047,2047,2047,2047,2047,2047,2047,2047,2047,2047,2047,2047,2047,2047,2047,2047,2047,2047,2047,2047,2047,2047,2047,2047,2047,2047,2047,2047,2047,2047,2047,2047,2047,2047,2047,2047,2047,2047,2047,2047,2047,2047,2047,2047,2047,2047,2047,2047,2047,2047,957,957,957,957,957,957,957,957,957,957,958,958,969,970,969,969,969,968,969,969,969,968,2047,2047,2047,918,919,920,920,919,919,918,917,918,917,917,917,918,918,918,917,917,917,971,971,971,971,971,972,972,972,972,972,973,973,973,972,973,972,972,972,972,972,972,972,972,972,972,972,972,972,972,971,2047,2047,2047,2047,2047,2047,2047,2047,2047,2047,2047,2047,2047,893,893,892,892,892,891,890,890,889,889,889,889,889,889,889,889,889,889,888,888,888,888,887,887,886,886,886,886,887,887,887,888,888,887,887,886,885,886,885,885,885,885,885,886,886,885,885,885,2047,878,878,878,877,878,878,878,877,877,877,877,877,877,877,877,877,877,877,877,877,879,879,2047,886,886,886,885,885,885,885,885,885,885,885,885,886,885,885,885,885,885,886,887,887,887,887,887,888,887,887,887,887,886,886,886,886,886,886,888,886,888,889,889,889,889,889,889,889,890,889,889,890,889,889,889,893,894,894,894,894,894,898,900,900,901,901,901,901,902,914,914,914,914,914,914,915,916,916,917,917,917,987,987,987,987,987,987,987,987,987,987,987,987,987,987,987,988,987,988,988,988,987,988,987,988,988,988,989,989,989,989,989,988,988,988,988,950,951,950,950,990,990,990,990,990,990,989,990,989,989,989,989,989,989,989,989,988,989,989,989,2047,961,961,960,960,959,958,958,958,958,958,958,957,957,957,957,956,956,955,955,954,954,954,954,954,954,954,2047,2047,2047,935,934,933,933,932,932,931,931,931,930,930,930,930,930,930,930,930,930,930,930,930,929,929,926,926,926,924,924,924,923,923,923,923,923,923,923,923,924,923,923,923,923,922,923,924,922,923,924,924,924,924,924,924,925,925,925,925,925,925,926,926,925,2047,2047,2047,2047,2047,2047,2047,2047,2047,2047,2047,2047,2047,2047,2047,2047,2047,2047,2047,2047,2047,2047,2047,2047,2047,2047,2047,2047,2047,2047,2047,2047,2047,2047,2047,2047,2047,2047,2047,2047,2047,2047,2047,2047,753,752,750,748,743,746,744,743,742,742,741,740,739,738,737,735,734,733,731,731,730,729,729,729,728,727,726,725,723,722,722,721,721,719,718,718,2047
2047,2047,2047,2047,2047,2047,2047,2047,2047,2047,2047,2047,2047,2047,2047,2047,2047,2047,2047,2047,2047,2047,2047,2047,2047,2047,2047,2047,2047,2047,2047,2047,2047,2047,2047,2047,2047,2047,2047,2047,2047,2047,2047,2047,2047,2047,2047,2047,2047,2047,2047,2047,2047,2047,2047,2047,2047,2047,2047,2047,2047,2047,2047,2047,2047,2047,2047,2047,2047,2047,2047,2047,2047,2047,2047,2047,2047,2047,2047,2047,2047,2047,2047,2047,2047,2047,2047,2047,2047,2047,2047,2047,2047,2047,2047,2047,2047,2047,2047,2047,2047,2047,2047,2047,2047,2047,2047,2047,2047,2047,2047,2047,2047,2047,2047,2047,2047,2047,2047,2047,2047,2047,2047,2047,2047,2047,2047,2047,2047,2047,2047,2047,2047,2047,2047,2047,2047,2047,2047,2047,2047,2047,2047,2047,2047,2047,2047,2047,2047,2047,2047,2047,957,957,958,958,958,958,957,957,956,956,969,970,970,970,969,969,968,969,969,969,968,2047,2047,2047,918,919,920,920,919,919,918,917,918,917,917,917,918,918,918,917,917,917,971,971,971,971,972,972,972,972,972,972,973,973,973,972,972,972,972,972,972,972,972,972,972,972,972,972,972,972,971,971,2047,2047,2047,2047,2047,2047,2047,2047,2047,2047,2047,2047,2047,893,893,893,892,892,892,890,890,889,889,888,889,888,888,888,889,889,889,888,888,888,888,888,887,887,887,887,887,887,887,888,888,888,887,887,886,886,886,885,885,885,885,886,886,886,885,885,885,885,880,878,878,877,878,878,878,878,878,877,877,877,877,877,877,877,877,877,877,878,880,880,881,886,886,885,886,885,885,885,886,885,885,885,885,885,885,885,885,885,885,886,887,887,887,887,887,888,887,887,887,887,887,887,886,886,886,886,886,886,886,888,889,889,889,889,889,889,889,889,889,889,889,889,890,893,894,894,894,894,895,897,899,900,901,901,901,901,901,914,915,914,914,914,914,915,916,917,917,917,987,987,987,987,986,986,987,987,987,987,987,987,987,988,988,987,988,987,988,988,988,987,988,987,988,988,988,989,989,989,989,989,988,989,951,951,951,951,951,951,950,950,990,950,990,990,989,989,989,989,989,989,989,989,989,989,989,989,989,989,2047,946,945,959,959,959,958,958,957,957,957,957,957,957,956,956,955,956,955,955,954,954,954,955,955,955,938,2047,2047,935,934,934,933,933,932,932,931,931,931,931,931,930,930,930,930,930,930,929,929,930,930,929,929,926,926,925,925,925,924,924,924,924,924,924,924,924,924,924,924,923,923,923,922,923,923,922,922,922,923,924,925,924,924,925,925,925,925,925,925,926,927,926,926,2047,2047,2047,2047,2047,2047,2047,2047,2047,2047,2047,2047,2047,2047,2047,2047,2047,2047,2047,2047,2047,2047,2047,2047,2047,2047,2047,2047,2047,2047,2047,2047,2047,2047,2047,2047,2047,2047,2047,2047,2047,2047,2047,754,753,752,750,750,748,744,743,742,741,740,738,738,736,735,734,732,731,731,730,730,729,729,729,728,727,726,725,723,722,722,721,720,719,718,718,2047
2047,2047,2047,2047,2047,2047,2047,2047,2047,2047,2047,2047,2047,2047,2047,2047,2047,2047,2047,2047,2047,2047,2047,2047,2047,2047,2047,2047,2047,2047,2047,2047,2047,2047,2047,2047,2047,2047,2047,2047,2047,2047,2047,2047,2047,2047,2047,2047,2047,2047,2047,2047,2047,2047,2047,2047,2047,2047,2047,2047,2047,2047,2047,2047,2047,2047,2047,2047,2047,2047,2047,2047,2047,2047,2047,2047,2047,2047,2047,2047,2047,2047,2047,2047,2047,2047,2047,2047,2047,2047,2047,2047,2047,2047,2047,2047,2047,2047,2047,2047,2047,2047,2047,2047,2047,2047,2047,2047,2047,2047,2047,2047,2047,2047,2047,2047,2047,2047,2047,2047,2047,2047,2047,2047,2047,2047,2047,2047,2047,2047,2047,2047,2047,2047,2047,2047,2047,2047,2047,2047,2047,2047,2047,2047,2047,2047,2047,2047,2047,2047,2047,2047,956,956,958,957,958,957,956,956,956,970,970,970,970,969,969,969,969,969,969,968,969,2047,2047,2047,918,921,920,920,919,919,918,917,917,917,917,917,918,918,918,918,918,917,971,971,971,971,972,972,972,972,972,973,973,973,973,972,972,972,972,972,972,972,972,972,972,972,972,972,972,971,971,971,2047,2047,2047,2047,2047,2047,2047,2047,2047,2047,2047,2047,2047,2047,892,892,891,892,892,891,890,889,888,888,888,888,888,888,889,889,889,889,888,888,888,888,888,887,886,886,887,887,887,887,887,887,887,887,886,886,886,885,885,885,885,885,886,886,885,885,885,885,880,880,879,878,878,878,878,877,877,877,877,877,877,877,877,877,877,877,877,878,880,881,881,883,886,886,886,885,885,885,885,885,885,885,885,885,885,885,885,885,885,886,886,886,887,887,887,889,887,888,887,887,888,888,887,886,886,886,885,886,886,888,888,889,889,889,889,889,889,889,889,889,889,890,890,893,894,894,893,893,894,893,899,900,901,900,901,901,901,914,915,914,914,914,915,915,915,916,916,986,987,987,986,987,986,986,986,987,987,987,987,987,987,988,988,988,988,987,988,988,987,987,987,987,987,988,958,957,956,954,954,953,953,953,952,952,952,952,951,951,951,950,950,951,951,951,951,951,989,989,950,989,989,989,989,989,989,989,945,945,945,946,945,2047,959,959,958,958,957,957,957,957,957,957,957,956,954,957,954,954,954,953,953,955,955,939,938,938,937,935,934,934,933,933,932,932,931,931,931,930,930,930,930,930,930,930,930,929,929,930,930,929,929,928,928,925,925,925,925,924,924,924,924,924,924,923,924,924,924,924,923,923,923,924,924,922,922,922,922,923,925,924,924,925,924,925,925,925,925,926,927,926,926,927,927,2047,2047,2047,2047,2047,2047,2047,2047,2047,2047,2047,2047,2047,2047,2047,2047,2047,2047,2047,2047,2047,2047,2047,2047,2047,2047,2047,2047,2047,2047,2047,2047,2047,2047,2047,2047,2047,2047,2047,2047,754,754,753,753,751,750,749,746,744,742,741,739,738,736,735,734,732,731,731,730,730,729,729,729,728,728,727,726,725,722,721,721,720,720,719,718,718,2047
2047,2047,2047,2047,2047,2047,2047,2047,2047,2047,2047,2047,2047,2047,2047,2047,2047,2047,2047,2047,2047,2047,2047,2047,2047,2047,2047,2047,2047,2047,2047,2047,2047,2047,2047,2047,2047,2047,2047,2047,2047,2047,2047,2047,2047,2047,2047,2047,2047,2047,2047,2047,2047,2047,2047,2047,2047,2047,2047,2047,2047,2047,2047,2047,2047,2047,2047,2047,2047,2047,2047,2047,2047,2047,2047,2047,2047,2047,2047,2047,2047,2047,2047,2047,2047,2047,2047,2047,2047,2047,2047,2047,2047,2047,2047,2047,2047,2047,2047,2047,2047,2047,2047,2047,2047,2047,2047,2047,2047,2047,2047,2047,2047,2047,2047,2047,2047,2047,2047,2047,2047,2047,2047,2047,2047,2047,2047,2047,2047,2047,2047,2047,2047,2047,2047,2047,2047,2047,2047,2047,2047,2047,2047,2047,2047,2047,2047,2047,2047,2047,2047,2047,2047,2047,957,958,958,957,956,956,2047,2047,969,969,970,969,969,969,969,969,968,968,968,2047,2047,2047,917,921,920,920,919,918,918,918,917,917,917,917,917,918,918,918,918,917,971,970,972,972,972,972,972,972,972,973,972,973,972,972,972,972,972,972,972,972,972,972,972,972,972,972,972,971,971,2047,2047,2047,2047,2047,2047,2047,2047,2047,2047,2047,2047,2047,2047,2047,2047,2047,891,891,892,891,890,889,889,888,888,888,888,888,888,889,888,889,889,888,888,888,887,887,886,886,886,886,886,887,886,887,886,886,886,886,886,885,885,885,885,886,886,886,885,885,885,885,884,881,880,878,878,878,878,877,878,877,877,877,877,877,877,877,877,877,878,878,881,882,883,884,884,884,885,885,885,885,885,886,886,886,885,885,885,885,885,885,885,886,886,886,886,887,887,888,888,888,888,888,889,888,888,887,886,886,885,886,886,887,887,888,888,888,888,889,889,889,889,890,890,890,891,891,893,894,893,893,892,893,896,899,900,900,900,901,901,914,915,914,914,914,915,914,914,985,985,986,987,987,987,986,986,986,986,987,987,987,987,987,987,988,988,988,988,987,987,987,987,987,987,986,986,986,957,956,955,954,954,954,953,953,952,952,952,952,952,951,951,951,951,951,951,950,950,950,949,949,949,948,947,946,947,946,946,945,945,945,945,946,945,946,945,945,959,959,957,957,958,958,957,958,957,957,957,957,957,956,956,942,941,941,939,939,938,937,937,936,935,934,934,933,932,932,931,931,930,930,930,930,930,930,930,930,930,929,930,930,930,929,929,928,928,925,925,925,925,924,924,924,925,924,924,924,925,924,924,924,924,924,923,924,924,924,925,925,925,925,925,925,925,924,924,924,923,926,926,926,926,926,926,927,927,2047,2047,2047,2047,2047,2047,2047,2047,2047,2047,2047,2047,2047,2047,2047,2047,2047,2047,2047,2047,2047,2047,2047,2047,2047,2047,2047,2047,2047,2047,2047,2047,2047,2047,2047,2047,2047,2047,2047,2047,754,754,754,753,751,750,749,747,744,742,740,739,738,736,735,733,732,731,731,730,730,729,729,728,728,727,726,725,724,722,721,721,720,720,719,718,718,2047
2047,2047,2047,2047,2047,2047,2047,2047,2047,2047,2047,2047,2047,2047,2047,2047,2047,2047,2047,2047,2047,2047,2047,2047,2047,2047,2047,2047,2047,2047,2047,2047,2047,2047,2047,2047,2047,2047,2047,2047,2047,2047,2047,2047,2047,2047,2047,2047,2047,2047,2047,2047,2047,2047,2047,2047,2047,2047,2047,2047,2047,2047,2047,2047,2047,2047,2047,2047,2047,2047,2047,2047,2047,2047,2047,2047,2047,2047,2047,2047,2047,2047,2047,2047,2047,2047,2047,2047,2047,2047,2047,2047,2047,2047,2047,2047,2047,2047,2047,2047,2047,2047,2047,2047,2047,2047,2047,2047,2047,2047,2047,2047,2047,2047,2047,2047,2047,2047,2047,2047,2047,2047,2047,2047,2047,2047,2047,2047,2047,2047,2047,2047,2047,2047,2047,2047,2047,2047,2047,2047,2047,2047,2047,2047,2047,2047,2047,2047,2047,2047,2047,2047,2047,2047,2047,2047,959,958,957,2047,2047,2047,969,969,970,969,969,969,969,969,968,969,968,2047,2047,2047,918,920,920,919,919,918,918,918,917,917,917,917,917,918,917,918,918,971,971,970,972,972,972,972,972,972,972,972,972,972,972,972,972,972,972,972,972,972,972,972,972,972,972,972,972,971,971,2047,2047,2047,2047,2047,2047,2047,2047,2047,2047,2047,2047,2047,2047,2047,2047,2047,2047,892,892,891,890,889,889,889,889,888,888,888,888,889,889,889,889,889,889,888,888,887,887,887,886,886,886,886,886,886,885,885,885,885,885,885,885,885,886,886,886,885,885,885,885,885,884,882,880,878,878,878,878,877,878,877,877,877,877,877,877,878,878,878,878,879,881,882,882,883,885,885,886,885,885,885,885,885,886,885,885,885,885,885,885,885,885,886,886,886,886,887,887,888,888,889,888,889,889,889,888,888,887,886,886,886,886,887,887,888,888,888,889,889,889,889,889,890,890,890,892,892,894,894,893,893,893,894,895,898,900,900,899,900,901,914,915,914,914,914,914,914,914,986,986,986,987,987,986,987,986,986,986,987,986,987,986,986,987,987,987,987,988,987,987,987,987,987,987,986,986,986,957,956,954,954,954,954,953,953,952,952,952,952,951,951,951,951,951,951,951,950,950,950,949,948,948,948,947,946,946,946,946,945,945,945,945,945,945,946,945,945,944,944,958,958,958,958,958,958,958,957,957,944,942,942,942,942,941,941,940,937,937,936,938,935,934,934,933,932,932,931,931,931,931,930,930,930,930,930,930,930,930,930,930,930,930,930,930,929,929,925,925,925,925,924,925,925,925,924,924,924,924,924,924,924,924,924,923,924,924,924,925,925,925,926,926,925,925,924,924,923,923,923,922,922,926,926,926,926,927,2047,2047,2047,2047,2047,2047,2047,2047,2047,2047,2047,2047,2047,2047,2047,2047,2047,2047,2047,2047,2047,2047,2047,2047,2047,2047,2047,2047,2047,2047,2047,2047,2047,2047,2047,2047,2047,2047,2047,755,755,754,754,754,752,751,749,747,745,742,741,741,738,736,734,733,732,731,731,730,730,729,728,728,728,727,726,725,723,721,721,721,720,720,719,718,718,2047
2047,2047,2047,2047,2047,2047,2047,2047,2047,2047,2047,2047,2047,2047,2047,2047,2047,2047,2047,2047,2047,2047,2047,2047,2047,2047,2047,2047,2047,2047,2047,2047,2047,2047,2047,2047,2047,2047,2047,2047,2047,2047,2047,2047,2047,2047,2047,2047,2047,2047,2047,2047,2047,2047,2047,2047,2047,2047,2047,2047,2047,2047,2047,2047,2047,2047,2047,2047,2047,2047,2047,2047,2047,2047,2047,2047,2047,2047,2047,2047,2047,2047,2047,2047,2047,2047,2047,2047,2047,2047,2047,2047,2047,2047,2047,2047,2047,2047,2047,2047,2047,2047,2047,2047,2047,2047,2047,2047,2047,2047,2047,2047,2047,2047,2047,2047,2047,2047,2047,2047,2047,2047,2047,2047,2047,2047,2047,2047,2047,2047,2047,2047,2047,2047,2047,2047,2047,2047,2047,2047,2047,2047,2047,2047,2047,2047,2047,2047,2047,2047,2047,2047,2047,2047,2047,2047,960,959,2047,2047,2047,2047,2047,969,969,969,969,969,969,969,968,969,968,2047,2047,2047,920,920,918,919,917,917,917,917,917,917,917,917,917,917,917,918,917,971,971,970,972,972,972,972,972,972,972,972,972,972,972,972,972,972,972,972,972,972,972,972,972,972,972,972,972,972,972,2047,2047,2047,2047,2047,2047,2047,2047,2047,2047,2047,2047,2047,2047,2047,2047,2047,2047,892,892,891,890,889,889,889,889,888,888,888,888,889,889,889,889,889,889,888,888,888,887,886,886,886,885,886,885,885,885,885,885,885,885,885,885,885,886,886,885,885,885,885,885,885,884,883,881,879,879,878,878,878,878,878,878,878,877,877,878,878,878,879,879,880,881,882,884,884,885,885,885,885,885,885,885,886,886,886,885,885,884,884,885,885,885,886,886,886,886,887,887,888,888,888,888,888,889,889,889,888,888,888,886,886,886,887,887,888,888,888,889,889,889,889,889,890,890,890,892,892,894,894,893,893,893,894,896,898,898,899,899,900,901,901,914,914,914,913,914,914,986,986,985,985,987,986,986,987,986,986,986,986,986,986,986,986,987,987,987,987,988,987,988,987,987,987,986,986,985,985,955,955,954,954,954,954,953,953,953,953,951,951,951,951,951,951,951,950,950,950,949,949,949,948,948,947,947,946,946,946,946,945,945,945,945,945,945,945,945,945,944,944,943,943,943,958,958,958,958,943,943,943,942,942,941,941,941,941,940,939,939,938,938,937,935,934,933,932,932,931,931,931,931,930,930,930,930,930,930,930,930,930,930,930,930,930,930,929,929,925,925,925,925,925,925,925,925,924,924,924,924,924,924,924,923,923,924,925,925,925,926,926,926,926,927,926,925,924,924,923,923,923,922,922,922,922,926,926,927,2047,2047,2047,2047,2047,2047,2047,2047,2047,2047,2047,2047,2047,2047,2047,2047,2047,2047,2047,2047,2047,2047,2047,2047,2047,2047,2047,2047,2047,2047,2047,2047,2047,2047,2047,2047,2047,2047,2047,2047,755,754,754,754,752,751,748,746,745,742,742,742,738,737,734,733,731,731,730,730,730,729,728,728,727,726,726,724,723,721,721,721,720,720,719,718,718,2047
2047,2047,2047,2047,2047,2047,2047,2047,2047,2047,2047,2047,2047,2047,2047,2047,2047,2047,2047,2047,2047,2047,2047,2047,2047,2047,2047,2047,2047,2047,2047,2047,2047,2047,2047,2047,2047,2047,2047,2047,2047,2047,2047,2047,2047,2047,2047,2047,2047,2047,2047,2047,2047,2047,2047,2047,2047,2047,2047,2047,2047,2047,2047,2047,2047,2047,2047,2047,2047,2047,2047,2047,2047,2047,2047,2047,2047,2047,2047,2047,2047,2047,2047,2047,2047,2047,2047,2047,2047,2047,2047,2047,2047,2047,2047,2047,2047,2047,2047,2047,2047,2047,2047,2047,2047,2047,2047,2047,2047,2047,2047,2047,2047,2047,2047,2047,2047,2047,2047,2047,2047,2047,2047,2047,2047,2047,2047,2047,2047,2047,2047,2047,2047,2047,2047,2047,2047,2047,2047,2047,2047,2047,2047,2047,2047,2047,2047,2047,2047,2047,2047,2047,2047,2047,2047,2047,2047,2047,2047,2047,2047,2047,2047,967,969,968,969,969,969,969,969,969,968,968,2047,920,920,919,919,918,917,917,917,917,917,917,917,917,917,917,917,917,917,917,972,971,972,972,972,972,972,972,972,973,972,972,972,972,972,972,972,972,972,972,972,972,972,972,972,972,972,972,972,971,2047,2047,2047,2047,2047,2047,2047,2047,2047,2047,2047,2047,2047,2047,2047,2047,2047,892,893,893,892,892,2047,2047,2047,2047,2047,2047,2047,890,889,889,889,888,888,888,888,887,888,888,888,888,887,887,887,886,886,886,886,885,885,885,885,885,885,886,885,885,885,885,885,885,884,883,883,880,879,877,877,877,877,877,877,877,877,877,878,878,878,879,879,880,881,883,884,884,885,885,885,885,886,886,886,886,885,885,885,885,885,885,885,885,886,886,887,887,887,888,888,888,888,887,888,888,889,889,889,889,889,889,889,889,888,887,889,887,887,887,887,888,889,889,889,890,890,890,890,891,891,891,893,891,891,892,892,897,898,898,899,900,901,901,901,914,913,913,986,986,986,986,986,986,987,987,987,987,987,987,987,987,987,987,987,987,987,988,987,987,987,987,987,988,987,987,987,986,986,953,954,954,953,953,953,953,953,952,952,952,952,952,951,950,950,950,950,950,950,950,949,949,948,948,948,948,947,947,946,946,946,946,945,945,945,945,945,945,944,944,944,943,943,942,942,942,942,942,942,942,942,942,942,941,941,941,941,941,941,938,938,937,937,936,935,934,933,933,932,931,931,931,930,930,930,930,930,930,931,930,930,930,930,930,929,929,928,927,926,926,925,925,924,926,925,925,925,925,926,925,925,924,925,925,924,923,923,924,924,924,924,924,924,925,2047,2047,2047,2047,2047,2047,2047,2047,2047,2047,2047,2047,2047,2047,2047,2047,2047,2047,2047,2047,2047,2047,2047,2047,2047,2047,2047,2047,2047,2047,2047,2047,2047,2047,2047,2047,2047,2047,2047,2047,2047,2047,2047,2047,2047,2047,2047,2047,2047,2047,2047,2047,2047,2047,2047,757,757,756,755,752,751,748,746,744,742,742,741,740,738,735,734,732,731,730,730,730,729,729,728,727,726,726,723,723,721,720,720,719,718,718,718,717,2047
2047,2047,2047,2047,2047,2047,2047,2047,2047,2047,2047,2047,2047,2047,2047,2047,2047,2047,2047,2047,2047,2047,2047,2047,2047,2047,2047,2047,2047,2047,2047,2047,2047,2047,2047,2047,2047,2047,2047,2047,2047,2047,2047,2047,2047,2047,2047,2047,2047,2047,2047,2047,2047,2047,2047,2047,2047,2047,2047,2047,2047,2047,2047,2047,2047,2047,2047,2047,2047,2047,2047,2047,2047,2047,2047,2047,2047,2047,2047,2047,2047,2047,2047,2047,2047,2047,2047,2047,2047,2047,2047,2047,2047,2047,2047,2047,2047,2047,2047,2047,2047,2047,2047,2047,2047,2047,2047,2047,2047,2047,2047,2047,2047,2047,2047,2047,2047,2047,2047,2047,2047,2047,2047,2047,2047,2047,2047,2047,2047,2047,2047,2047,2047,2047,2047,2047,2047,2047,2047,2047,2047,2047,2047,2047,2047,2047,2047,2047,2047,2047,2047,2047,2047,2047,2047,2047,2047,2047,2047,2047,2047,2047,2047,2047,2047,969,969,969,969,969,969,969,969,969,2047,920,920,919,918,918,917,917,917,917,916,917,917,917,917,917,917,917,917,917,972,971,971,972,972,972,972,972,972,972,972,972,972,972,972,972,972,972,972,972,972,972,972,972,972,972,972,972,972,971,971,970,2047,2047,2047,2047,2047,2047,2047,2047,2047,2047,2047,2047,2047,2047,2047,2047,892,892,892,892,2047,2047,2047,2047,2047,2047,2047,890,889,889,889,889,888,888,888,887,887,887,887,888,887,887,887,886,886,886,886,886,886,886,885,886,886,886,885,885,885,885,885,885,885,884,884,882,880,878,878,878,878,878,878,878,878,878,878,879,880,880,880,881,884,884,884,885,885,885,886,885,886,886,886,886,886,886,886,886,885,885,885,886,886,887,887,887,888,888,888,888,888,887,887,888,889,889,889,889,890,890,889,889,888,887,889,887,887,887,888,888,889,889,889,890,890,890,890,890,891,891,891,891,891,892,894,896,897,898,898,899,900,901,903,903,907,907,986,986,986,986,986,986,986,987,987,987,987,987,987,987,986,987,987,987,987,987,987,987,987,987,987,987,987,987,987,987,953,953,954,954,953,953,953,953,952,952,952,951,951,951,951,951,951,951,951,950,950,949,949,949,948,948,947,947,946,946,946,946,946,945,945,945,945,945,944,944,944,943,944,943,943,942,942,942,942,942,942,942,942,942,941,941,941,940,940,940,940,938,938,937,937,937,936,935,934,933,933,931,931,931,930,930,930,930,930,930,930,930,930,930,930,930,929,928,928,926,925,925,925,924,923,925,925,925,925,925,926,925,925,924,924,924,924,923,923,924,924,924,924,924,924,2047,2047,2047,2047,2047,2047,2047,2047,2047,2047,2047,2047,2047,2047,2047,2047,2047,2047,2047,2047,2047,2047,2047,2047,2047,2047,2047,2047,2047,2047,2047,2047,2047,2047,2047,2047,2047,2047,2047,2047,2047,2047,2047,2047,2047,2047,2047,2047,2047,2047,2047,2047,2047,2047,2047,757,757,757,757,756,755,755,745,745,744,742,742,742,740,739,737,735,733,731,731,730,730,729,729,728,727,725,725,723,722,720,720,720,718,718,718,717,717,2047
2047,2047,2047,2047,2047,2047,2047,2047,2047,2047,2047,2047,2047,2047,2047,2047,2047,2047,2047,2047,2047,2047,2047,2047,2047,2047,2047,2047,2047,2047,2047,2047,2047,2047,2047,2047,2047,2047,2047,2047,2047,2047,2047,2047,2047,2047,2047,2047,2047,2047,2047,2047,2047,2047,2047,2047,2047,2047,2047,2047,2047,2047,2047,2047,2047,2047,2047,2047,2047,2047,2047,2047,2047,2047,2047,2047,2047,2047,2047,2047,2047,2047,2047,2047,2047,2047,2047,2047,2047,2047,2047,2047,2047,2047,2047,2047,2047,2047,2047,2047,2047,2047,2047,2047,2047,2047,2047,2047,2047,2047,2047,2047,2047,2047,2047,2047,2047,2047,2047,2047,2047,2047,2047,2047,2047,2047,2047,2047,2047,2047,2047,2047,2047,2047,2047,2047,2047,2047,2047,2047,2047,2047,2047,2047,2047,2047,2047,2047,2047,2047,2047,2047,2047,2047,2047,2047,2047,2047,2047,2047,2047,2047,2047,2047,2047,2047,969,969,969,969,969,969,968,2047,2047,2047,918,918,918,918,917,917,917,917,916,917,917,917,917,917,917,917,917,972,972,971,971,972,971,972,972,972,972,972,972,972,972,972,972,972,972,972,972,972,972,972,972,972,972,972,972,972,972,971,971,970,970,970,2047,2047,2047,2047,2047,2047,2047,2047,2047,2047,2047,2047,2047,2047,2047,892,892,891,891,2047,2047,2047,2047,2047,2047,2047,2047,2047,889,889,889,888,888,887,888,888,887,888,887,887,886,886,886,886,886,886,886,886,886,886,886,886,886,885,885,885,885,885,885,884,884,882,881,879,878,878,878,878,878,878,878,878,879,880,880,880,881,882,884,884,884,885,886,886,886,886,886,886,886,885,885,886,886,885,885,885,885,886,886,887,887,888,888,888,888,887,888,887,887,888,889,889,890,890,890,890,889,889,888,887,887,886,886,886,887,887,889,889,889,890,890,890,890,890,890,891,891,891,891,892,894,896,896,897,898,899,900,901,902,903,906,907,986,986,986,986,986,986,986,987,987,987,987,987,987,987,986,987,986,986,987,987,987,987,987,987,987,987,987,987,987,953,953,953,954,953,953,953,952,952,952,952,951,951,951,950,951,950,950,950,950,950,950,949,949,948,947,947,946,946,946,946,946,946,946,945,945,945,945,944,944,944,943,943,943,942,943,942,942,942,942,942,942,941,941,941,941,941,940,940,940,940,940,939,938,938,937,937,937,935,934,933,933,931,931,931,930,930,930,930,930,930,930,930,930,929,929,929,928,928,927,926,925,925,925,924,924,925,924,925,925,926,926,925,925,923,924,924,924,923,923,923,923,924,924,925,2047,2047,2047,2047,2047,2047,2047,2047,2047,2047,2047,2047,2047,2047,2047,2047,2047,2047,2047,2047,2047,2047,2047,2047,2047,2047,2047,2047,2047,2047,2047,2047,2047,2047,2047,2047,2047,2047,2047,2047,2047,2047,2047,2047,2047,2047,2047,2047,2047,2047,2047,2047,2047,2047,2047,2047,757,756,757,757,756,756,756,744,744,742,742,741,741,740,739,737,735,733,732,732,731,730,730,729,728,726,725,724,722,721,720,719,719,718,718,717,717,717,2047
2047,2047,2047,2047,2047,2047,2047,2047,2047,2047,2047,2047,2047,2047,2047,2047,2047,2047,2047,2047,2047,2047,2047,2047,2047,2047,2047,2047,2047,2047,2047,2047,2047,2047,2047,2047,2047,2047,2047,2047,2047,2047,2047,2047,2047,2047,2047,2047,2047,2047,2047,2047,2047,2047,2047,2047,2047,2047,2047,2047,2047,2047,2047,2047,2047,2047,2047,2047,2047,2047,2047,2047,2047,2047,2047,2047,2047,2047,2047,2047,2047,2047,2047,2047,2047,2047,2047,2047,2047,2047,2047,2047,2047,2047,2047,2047,2047,2047,2047,2047,2047,2047,2047,2047,2047,2047,2047,2047,2047,2047,2047,2047,2047,2047,2047,2047,2047,2047,2047,2047,2047,2047,2047,2047,2047,2047,2047,2047,2047,2047,2047,2047,2047,2047,2047,2047,2047,2047,2047,2047,2047,2047,2047,2047,2047,2047,2047,2047,2047,2047,2047,2047,2047,2047,2047,2047,2047,2047,2047,2047,2047,2047,2047,2047,2047,2047,2047,969,969,969,969,968,968,967,967,2047,2047,918,918,917,917,917,917,917,916,917,917,917,917,917,917,918,918,972,972,971,971,972,972,972,972,972,972,972,972,972,972,972,972,972,972,972,972,972,972,972,972,972,972,972,972,972,972,971,971,970,970,970,968,2047,2047,2047,2047,2047,2047,2047,2047,2047,2047,2047,2047,2047,2047,2047,891,2047,891,2047,2047,2047,2047,2047,2047,2047,2047,2047,889,889,888,888,888,887,888,887,887,887,887,886,887,887,886,886,886,886,886,886,885,886,886,886,886,885,885,885,886,885,885,884,884,882,881,881,880,880,880,880,880,880,879,879,880,880,880,881,881,881,883,884,885,885,886,886,886,886,886,886,886,885,885,885,885,885,885,885,885,886,886,886,887,888,887,889,889,888,888,887,888,888,889,889,890,890,890,890,889,889,888,887,886,886,886,887,887,887,889,889,889,890,890,890,890,890,891,891,891,891,892,892,894,896,896,897,898,899,899,901,902,903,905,906,986,986,986,986,986,986,986,987,987,987,987,987,987,987,986,986,986,986,987,987,987,987,987,986,987,987,987,987,954,954,954,954,954,953,953,953,952,952,951,951,951,951,950,950,950,950,950,950,950,950,949,949,948,948,947,947,946,946,946,946,945,945,945,945,945,945,944,944,943,943,942,942,942,942,942,942,941,941,941,941,941,941,941,941,941,940,940,940,939,939,939,939,938,938,938,937,937,937,935,934,934,932,932,932,930,930,930,930,929,930,930,930,930,930,929,929,929,929,928,926,925,925,925,925,925,925,925,925,925,926,927,926,925,924,924,924,924,922,922,923,923,924,924,925,924,924,2047,2047,2047,2047,2047,2047,2047,2047,2047,2047,2047,2047,2047,2047,2047,2047,2047,2047,2047,2047,2047,2047,2047,2047,2047,2047,2047,2047,2047,2047,2047,2047,2047,2047,2047,2047,2047,2047,2047,2047,2047,2047,2047,2047,2047,2047,2047,2047,2047,2047,2047,2047,2047,2047,757,757,757,757,756,756,756,744,744,742,742,742,741,741,739,737,735,734,733,732,731,730,730,729,728,726,725,724,722,721,720,720,720,718,718,717,717,716,2047
2047,2047,2047,2047,2047,2047,2047,2047,2047,2047,2047,2047,2047,2047,2047,2047,2047,2047,2047,2047,2047,2047,2047,2047,2047,2047,2047,2047,2047,2047,2047,2047,2047,2047,2047,2047,2047,2047,2047,2047,2047,2047,2047,2047,2047,2047,2047,2047,2047,2047,2047,2047,2047,2047,2047,2047,2047,2047,2047,2047,2047,2047,2047,2047,2047,2047,2047,2047,2047,2047,2047,2047,2047,2047,2047,2047,2047,2047,2047,2047,2047,2047,2047,2047,2047,2047,2047,2047,2047,2047,2047,2047,2047,2047,2047,2047,2047,2047,2047,2047,2047,2047,2047,2047,2047,2047,2047,2047,2047,2047,2047,2047,2047,2047,2047,2047,2047,2047,2047,2047,2047,2047,2047,2047,2047,2047,2047,2047,2047,2047,2047,2047,2047,2047,2047,2047,2047,2047,2047,2047,2047,2047,2047,2047,2047,2047,2047,2047,2047,2047,2047,2047,2047,2047,2047,2047,2047,2047,2047,2047,2047,2047,2047,2047,2047,2047,2047,2047,969,2047,969,968,968,967,967,2047,2047,918,918,917,917,917,917,916,916,916,917,917,917,917,917,918,918,972,972,971,971,972,972,972,972,972,972,972,972,972,972,972,972,972,972,972,972,972,972,972,972,973,973,973,973,972,972,971,971,970,970,970,969,969,969,2047,2047,2047,2047,2047,2047,2047,2047,2047,2047,2047,2047,2047,2047,2047,2047,2047,2047,2047,2047,2047,2047,2047,2047,2047,2047,889,888,888,888,888,888,887,886,887,886,886,886,886,886,886,886,886,886,886,885,885,886,886,886,885,885,885,885,885,885,884,884,882,882,881,880,880,881,881,881,881,881,881,881,881,881,881,881,882,884,885,885,885,886,886,886,885,886,885,885,885,885,885,885,885,885,885,885,885,886,886,886,887,887,887,888,887,888,887,887,888,889,889,889,889,889,889,889,888,887,887,886,886,886,886,887,888,889,890,889,890,890,890,890,890,890,890,891,891,892,892,894,896,897,897,898,899,900,901,902,903,904,906,986,986,986,986,986,986,986,987,987,987,987,987,987,987,986,986,986,986,986,987,987,986,986,986,986,986,986,955,954,954,954,954,953,953,953,952,952,952,951,951,951,951,950,950,950,950,950,950,950,949,949,948,948,947,946,946,946,946,946,946,945,945,946,945,945,945,944,944,943,943,942,942,942,941,942,941,941,941,941,941,941,941,940,940,940,940,940,940,939,939,939,939,938,938,938,937,937,936,936,935,934,934,933,932,931,930,930,930,929,929,929,929,929,929,929,929,929,929,928,926,926,925,925,925,925,925,925,925,925,926,926,926,925,924,924,924,923,923,923,923,923,924,924,925,925,925,2047,2047,2047,2047,2047,2047,2047,2047,2047,2047,2047,2047,2047,2047,2047,2047,2047,2047,2047,2047,2047,2047,2047,2047,2047,2047,2047,2047,2047,2047,2047,2047,2047,2047,2047,2047,2047,2047,2047,2047,2047,2047,2047,2047,2047,2047,2047,2047,2047,2047,2047,2047,2047,2047,2047,757,757,757,756,756,756,743,743,742,742,742,741,740,739,737,736,734,733,733,732,731,730,729,728,727,725,724,722,722,721,720,720,719,718,718,717,716,2047
