1043,1044,2047,2047,2047,2047,2047,2047,2047,2047,2047,2047,2047,2047,2047,2047,2047,2047,2047,2047,2047,2047,2047,2047,2047,2047,2047,2047,2047,2047,2047,2047,2047,2047,2047,2047,2047,2047,2047,2047,2047,2047,2047,2047,2047,2047,2047,2047,2047,2047,2047,2047,2047,2047,2047,2047,2047,741,645,645,645,645,644,646,645,646,646,646,646,735,2047,2047,2047,2047,2047,2047,2047,2047,2047,2047,2047,689,689,689,688,688,687,687,687,686,686,683,683,681,681,680,679,679,679,679,679,679,679,679,678,678,682,682,681,681,681,681,680,680,679,680,680,680,680,680,680,680,680,680,681,681,681,681,681,681,681,682,682,682,683,682,684,684,687,687,689,690,691,692,693,693,693,694,694,694,694,694,694,692,692,692,692,692,692,693,670,670,670,670,670,670,670,669,669,669,669,669,669,668,668,668,667,667,667,667,667,667,666,666,666,665,665,664,663,663,662,661,660,660,660,659,658,657,657,656,656,656,655,656,656,656,656,658,658,663,662,663,664,663,663,662,662,662,661,661,661,661,661,661,662,662,662,662,662,663,663,663,664,665,665,665,665,665,665,666,666,666,666,667,668,668,669,669,670,670,670,671,672,672,673,674,676,676,678,679,680,680,681,682,684,685,686,685,685,697,697,697,698,698,1040,1041,1041,1040,1040,1040,1040,1040,1040,1040,1039,1039,1039,1039,1039,1039,1039,1039,1039,1039,1038,1038,1038,1039,1039,1039,1038,1038,1039,1038,1038,1038,1038,1038,1038,1038,1038,1038,1038,1037,1037,1037,1037,1038,1037,1037,1037,1036,1036,1036,1037,1036,1036,1036,1036,1036,1035,1036,1035,1035,1035,1035,1035,1035,1035,1034,1034,1033,1034,1034,1034,1034,1034,1033,1033,1033,1033,1033,1033,1033,1033,1033,1033,1033,1033,1033,1032,1032,1032,1033,1032,1032,1032,1032,1032,1032,1032,1032,1032,1032,1032,1031,1031,1031,1031,1030,1030,1030,1030,1031,1031,1030,1030,1030,1029,1029,2047,2047,2047,2047,2047,2047,2047,2047,2047,2047,2047,2047,2047,2047,2047,2047,2047,2047,2047,2047,2047,2047,2047,2047,2047,2047,2047,2047,2047,2047,2047,2047,2047,2047,2047,2047,2047,2047,2047,2047,2047,2047,2047,2047,2047,2047,2047,2047,2047,2047,2047,2047,2047,2047,2047,2047,2047,2047,2047,2047,2047,548,548,547,545,545,544,543,542,541,540,540,539,538,537,2047,2047,2047,2047,2047,2047,2047,2047,2047,2047,2047,2047,2047,2047,2047,2047,2047,2047,435,434,434,2047,2047,2047,2047,2047,444,443,443,443,443,443,443,2047,455,455,456,456,456,457,459,466,468,468,468,469,468,468,467,466,465,462,2047,2047,2047,2047,2047,447,447,446,446,440,440,440,439,439,439,439,439,439,2047,2047,2047,2047,2047,2047,2047,2047,2047,2047,416,2047,2047,2047,2047,2047,2047,2047,2047,2047,2047,2047,395,395,395,395,395,395,393,392,392,392,392,391,391,391,2047,2047,2047,2047,2047,2047,2047,2047,2047,2047,2047,2047,2047,2047,2047,2047,2047,2047,2047,2047,2047,2047,2047,2047,2047,2047,2047,2047,2047,2047,2047,2047,2047,2047,2047,2047,2047,2047,2047,2047,2047,2047,2047,2047,2047,2047,2047,2047,2047,2047,2047,2047,2047,2047,2047,2047,2047,2047,2047,2047,2047,2047,2047,2047
1043,1044,1044,2047,2047,2047,2047,2047,2047,2047,2047,2047,2047,2047,2047,2047,2047,2047,2047,2047,2047,2047,2047,2047,2047,2047,2047,2047,2047,2047,2047,2047,2047,2047,2047,2047,2047,2047,2047,2047,2047,2047,2047,2047,2047,2047,2047,2047,2047,2047,2047,2047,2047,2047,2047,2047,2047,2047,2047,2047,645,645,644,646,736,736,731,735,735,735,735,2047,2047,2047,2047,2047,2047,2047,2047,2047,690,690,690,691,691,691,690,689,688,687,686,685,683,682,682,680,680,680,679,679,679,679,679,679,679,681,682,681,682,681,681,681,681,681,680,681,681,681,681,681,681,680,681,681,681,681,681,681,681,682,682,682,683,683,683,683,686,690,689,690,691,691,692,693,693,693,694,694,694,694,694,694,694,692,692,692,692,691,673,672,671,671,671,671,670,670,670,669,669,668,669,668,669,668,667,667,667,667,667,667,667,667,666,666,666,665,665,665,664,663,662,661,661,660,660,658,658,657,657,656,656,656,656,656,656,657,657,658,658,662,662,663,663,663,662,662,662,661,661,661,661,661,661,661,661,661,662,662,662,663,663,663,664,664,664,665,665,665,665,666,666,666,666,667,668,668,669,669,670,670,670,671,672,673,674,674,676,677,678,679,680,680,681,682,684,684,685,685,685,684,696,696,697,697,1040,1041,1041,1040,1040,1040,1040,1039,1040,1039,1039,1039,1039,1039,1039,1039,1039,1039,1039,1038,1038,1038,1039,1039,1039,1039,1039,1039,1038,1038,1038,1038,1038,1038,1038,1038,1038,1038,1038,1037,1037,1037,1037,1037,1037,1037,1037,1036,1036,1036,1037,1036,1036,1036,1036,1036,1035,1036,1035,1035,1035,1035,1035,1035,1035,1035,1034,1034,1034,1034,1034,1034,1034,1034,1034,1034,1034,1033,1033,1033,1033,1033,1033,1033,1033,1033,1032,1032,1032,1033,1032,1032,1032,1032,1032,1032,1032,1032,1032,1032,1032,1031,1031,1032,1031,1031,1030,1030,1030,1031,1030,1030,1030,1029,1029,1029,2047,2047,2047,2047,2047,2047,2047,2047,2047,2047,2047,2047,2047,2047,2047,2047,2047,2047,2047,2047,2047,2047,2047,2047,2047,2047,2047,2047,2047,2047,2047,2047,2047,2047,2047,2047,2047,2047,2047,2047,2047,2047,2047,2047,2047,2047,2047,2047,2047,2047,2047,2047,2047,2047,2047,2047,2047,2047,2047,2047,549,548,546,546,545,544,544,542,542,541,540,539,538,537,536,2047,2047,2047,2047,2047,2047,2047,2047,2047,2047,2047,2047,2047,2047,2047,2047,2047,2047,436,435,435,435,2047,2047,2047,2047,2047,2047,2047,442,443,443,2047,2047,2047,455,456,456,456,457,458,464,467,467,468,468,467,468,467,466,2047,2047,2047,2047,2047,2047,2047,448,447,446,446,440,440,439,439,439,439,438,438,438,438,2047,2047,2047,2047,2047,2047,2047,2047,2047,2047,2047,2047,2047,2047,2047,2047,2047,2047,2047,2047,2047,395,395,394,394,394,394,392,391,391,391,391,391,390,391,2047,2047,2047,2047,2047,2047,2047,2047,2047,2047,2047,2047,2047,2047,2047,2047,2047,2047,2047,2047,2047,2047,2047,2047,2047,2047,2047,2047,2047,2047,2047,2047,2047,2047,2047,2047,2047,2047,2047,2047,2047,2047,2047,2047,2047,2047,2047,2047,2047,2047,2047,2047,2047,2047,2047,2047,2047,2047,2047,2047,2047,2047,2047,2047
1044,1044,1045,1045,2047,2047,2047,2047,2047,2047,2047,2047,2047,1050,1050,2047,2047,2047,2047,2047,2047,2047,2047,2047,2047,2047,2047,2047,2047,2047,2047,2047,2047,2047,2047,2047,2047,2047,2047,2047,2047,2047,2047,2047,2047,2047,2047,2047,2047,2047,2047,2047,2047,2047,2047,2047,2047,741,741,740,738,738,737,736,734,735,731,734,734,734,734,2047,2047,2047,2047,2047,2047,2047,690,690,691,690,690,692,692,693,692,691,689,687,687,686,685,683,683,682,680,680,680,680,680,683,680,681,681,682,683,682,682,682,682,682,682,681,681,681,681,681,681,681,681,681,681,681,681,681,681,681,682,682,682,682,684,684,685,686,689,690,690,691,692,692,693,693,694,693,694,694,694,695,695,694,695,692,692,668,672,673,673,673,672,671,671,671,671,670,670,669,670,669,669,669,669,668,668,667,667,667,667,667,667,666,666,666,666,665,665,664,663,663,662,661,661,660,659,658,657,657,657,656,655,656,656,656,656,657,657,658,659,662,663,663,663,663,662,662,662,661,661,661,661,661,661,661,661,662,662,662,662,663,664,664,664,665,664,665,665,665,665,666,666,666,666,667,668,668,669,669,670,670,670,671,671,672,673,674,676,676,678,679,680,680,681,682,683,684,685,685,685,692,695,694,696,696,1041,1041,1041,1040,1040,1040,1040,1040,1040,1040,1039,1039,1040,1039,1039,1040,1039,1039,1038,1038,1038,1038,1039,1039,1039,1039,1039,1039,1039,1038,1038,1038,1038,1038,1038,1038,1038,1038,1038,1038,1037,1037,1037,1037,1037,1036,1036,1036,1036,1036,1037,1036,1036,1036,1036,1036,1036,1036,1036,1035,1035,1035,1035,1035,1036,1035,1035,1034,1034,1034,1034,1035,1034,1034,1034,1034,1034,1033,1033,1033,1033,1033,1033,1033,1032,1033,1032,1032,1032,1033,1032,1032,1032,1032,1032,1032,1032,1032,1032,1032,1032,1032,1032,1032,1031,1031,1031,1030,1030,1030,1030,1030,1029,1029,1028,1028,2047,2047,2047,2047,2047,2047,2047,2047,2047,2047,2047,2047,2047,2047,2047,2047,2047,2047,2047,2047,2047,2047,2047,2047,2047,2047,2047,2047,2047,2047,2047,2047,2047,2047,2047,2047,2047,2047,2047,2047,2047,2047,2047,2047,2047,2047,2047,2047,2047,2047,2047,2047,2047,2047,2047,2047,2047,2047,2047,2047,549,548,546,545,544,544,543,542,541,541,540,539,537,536,2047,2047,2047,2047,2047,2047,2047,2047,2047,2047,2047,2047,2047,2047,2047,2047,2047,2047,2047,436,435,435,433,433,429,428,2047,2047,2047,2047,2047,2047,2047,2047,2047,2047,2047,456,456,457,457,460,464,467,467,468,468,467,467,467,466,2047,2047,2047,2047,2047,2047,448,448,447,446,446,440,440,439,438,438,438,437,437,437,437,436,2047,2047,2047,2047,2047,2047,2047,2047,2047,2047,2047,2047,2047,2047,2047,2047,2047,2047,2047,395,395,395,394,394,394,394,392,391,391,391,391,391,391,392,2047,2047,403,402,2047,2047,2047,2047,2047,2047,2047,2047,2047,2047,2047,2047,2047,2047,2047,2047,2047,2047,2047,2047,2047,2047,2047,2047,2047,2047,2047,2047,2047,2047,2047,2047,2047,2047,2047,2047,2047,2047,2047,2047,2047,2047,2047,2047,2047,2047,2047,2047,2047,2047,2047,2047,2047,2047,2047,2047,2047,2047,2047,2047
1045,1045,1045,1046,1046,1047,1047,1049,1050,1050,1049,2047,2047,1049,1049,2047,2047,2047,2047,2047,2047,2047,2047,2047,2047,2047,2047,2047,2047,2047,2047,2047,2047,2047,2047,2047,2047,2047,2047,2047,2047,2047,2047,2047,2047,2047,2047,2047,2047,2047,2047,2047,2047,2047,2047,2047,2047,741,741,740,739,738,737,736,735,735,734,734,734,734,734,734,2047,2047,2047,2047,2047,2047,691,690,691,691,691,692,692,693,692,691,690,689,689,687,688,686,686,684,683,683,683,682,682,683,682,682,683,683,683,683,683,682,682,682,682,682,681,682,681,681,681,681,681,681,681,681,681,681,681,682,682,682,683,683,684,685,686,689,690,690,691,692,693,693,694,694,694,694,694,694,695,695,695,695,695,695,673,673,673,673,673,673,672,671,671,671,670,670,670,669,669,669,669,669,669,668,668,668,668,667,667,667,667,667,667,666,666,665,665,664,663,662,662,661,660,660,659,658,657,657,657,656,656,656,656,656,657,657,657,659,659,662,662,662,662,662,662,661,662,661,661,661,661,661,661,661,661,662,662,662,662,663,664,664,664,664,664,664,664,665,665,665,666,666,666,667,667,668,669,669,670,670,670,671,671,672,673,674,676,676,678,679,679,680,681,682,683,684,685,686,689,693,694,695,696,696,1041,1041,1040,1040,1040,1040,1040,1040,1040,1040,1040,1040,1040,1040,1040,1040,1039,1039,1039,1039,1038,1039,1039,1040,1039,1039,1039,1039,1039,1039,1038,1038,1038,1038,1038,1038,1038,1038,1038,1038,1037,1037,1037,1037,1037,1037,1037,1036,1036,1036,1037,1036,1036,1036,1035,1035,1035,1036,1035,1035,1035,1035,1035,1035,1035,1034,1034,1034,1034,1034,1034,1034,1034,1034,1034,1034,1034,1033,1033,1033,1033,1032,1032,1032,1032,1032,1032,1032,1032,1033,1032,1032,1032,1032,1032,1032,1032,1032,1032,1032,1032,1032,1032,1032,1031,1031,1031,1030,1030,1030,1030,1030,1029,1029,1028,2047,2047,2047,2047,2047,2047,2047,2047,2047,2047,2047,2047,2047,2047,2047,2047,2047,2047,2047,2047,2047,2047,2047,2047,2047,2047,2047,2047,2047,2047,2047,2047,2047,2047,2047,2047,2047,2047,2047,2047,2047,2047,2047,2047,2047,2047,2047,2047,2047,2047,2047,2047,2047,2047,2047,2047,2047,2047,2047,2047,549,547,547,545,545,544,544,543,542,541,541,540,539,537,536,2047,2047,2047,2047,2047,2047,2047,2047,516,2047,2047,2047,2047,2047,2047,2047,2047,2047,2047,2047,434,434,433,433,433,428,428,2047,424,2047,2047,2047,2047,2047,2047,2047,2047,456,456,456,456,465,465,468,468,467,467,467,467,467,466,2047,2047,2047,2047,2047,2047,448,448,447,446,444,444,440,438,437,436,437,436,436,435,435,435,433,2047,2047,2047,2047,2047,2047,2047,2047,2047,2047,2047,2047,2047,2047,2047,2047,2047,2047,396,395,395,394,394,394,393,392,391,390,390,390,391,389,391,391,403,403,403,403,2047,2047,2047,2047,2047,2047,2047,2047,2047,2047,2047,2047,2047,2047,2047,2047,2047,2047,2047,2047,2047,2047,2047,2047,2047,2047,2047,2047,2047,2047,2047,2047,2047,2047,2047,2047,2047,2047,2047,2047,2047,2047,2047,2047,2047,2047,2047,2047,2047,2047,2047,2047,2047,2047,2047,2047,2047,2047,2047
1045,1045,1046,1046,1046,1047,1046,1048,1049,1049,1049,1048,1048,1049,1049,2047,2047,2047,2047,2047,2047,2047,2047,2047,2047,2047,2047,2047,2047,2047,2047,2047,2047,2047,2047,2047,2047,2047,2047,2047,2047,2047,2047,2047,2047,2047,2047,2047,2047,2047,2047,2047,2047,2047,2047,741,741,741,740,739,738,737,736,736,735,735,734,734,734,733,733,733,2047,2047,2047,2047,2047,2047,691,690,691,691,692,692,693,693,692,692,691,690,690,689,689,688,687,686,686,685,685,684,685,685,684,685,684,684,684,683,683,683,683,683,682,682,681,682,682,682,681,681,681,681,682,682,682,682,682,682,683,683,684,684,689,688,689,690,690,691,692,693,693,694,694,694,694,694,694,694,696,697,696,697,697,674,673,673,673,673,673,673,672,671,671,670,671,671,670,670,670,669,669,669,669,669,668,668,668,668,668,668,668,667,667,666,666,665,665,664,663,663,662,661,660,659,658,657,656,655,656,656,655,655,655,655,656,657,657,660,660,662,662,662,661,661,661,660,661,660,660,660,660,660,660,660,660,661,661,661,662,662,663,662,663,663,663,663,664,664,665,665,665,666,666,666,667,668,668,669,669,670,670,671,671,672,673,674,675,676,677,679,679,680,681,682,683,685,686,688,688,692,693,694,694,695,1040,1039,1039,1039,1039,1039,1040,1039,1041,1041,1040,1039,1039,1039,1039,1039,1039,1039,1039,1039,1039,1039,1039,1039,1038,1038,1038,1038,1038,1038,1038,1038,1037,1037,1038,1037,1037,1037,1037,1037,1037,1037,1037,1037,1037,1037,1037,1037,1037,1037,1037,1037,1037,1036,1036,1035,1035,1035,1035,1034,1034,1034,1034,1034,1034,1034,1034,1034,1034,1034,1034,1034,1034,1034,1034,1034,1034,1033,1033,1033,1033,1033,1033,1032,1032,1032,1032,1032,1032,1033,1032,1032,1032,1032,1032,1032,1032,1032,1032,1032,1032,1032,1032,1032,1031,1031,1031,1031,1031,1030,1030,1030,1031,2047,2047,2047,2047,2047,2047,2047,2047,2047,2047,2047,2047,2047,2047,2047,2047,2047,2047,2047,2047,2047,2047,2047,2047,2047,2047,2047,2047,2047,2047,2047,2047,2047,2047,2047,2047,2047,2047,2047,2047,2047,2047,2047,2047,2047,2047,2047,2047,2047,2047,2047,2047,2047,2047,2047,2047,2047,2047,2047,2047,2047,548,549,548,547,546,545,544,543,542,541,541,540,540,539,537,536,533,2047,2047,2047,2047,2047,2047,2047,2047,2047,511,509,2047,2047,2047,2047,2047,2047,2047,2047,433,434,433,432,431,429,428,425,2047,2047,2047,2047,2047,2047,2047,2047,2047,2047,2047,2047,2047,468,467,467,467,468,468,467,467,467,466,2047,2047,2047,2047,2047,447,447,446,445,444,443,441,440,438,437,436,436,436,436,435,435,435,434,434,2047,2047,2047,2047,2047,2047,441,2047,2047,2047,2047,2047,2047,2047,2047,2047,2047,2047,2047,2047,2047,2047,2047,2047,2047,2047,2047,2047,2047,2047,2047,2047,2047,2047,2047,2047,2047,2047,2047,2047,2047,2047,2047,2047,2047,2047,2047,2047,2047,2047,2047,2047,2047,2047,2047,2047,2047,2047,2047,2047,2047,2047,2047,2047,2047,2047,2047,2047,2047,2047,2047,2047,2047,2047,2047,2047,2047,2047,2047,2047,2047,2047,2047,2047,2047,2047,2047,2047,2047,2047,2047,2047,2047,2047,2047,2047
1046,1046,1046,1046,1046,1046,1046,1047,1047,1047,1047,1047,2047,2047,2047,2047,2047,2047,2047,2047,2047,2047,2047,2047,2047,2047,2047,2047,2047,2047,2047,2047,2047,2047,2047,2047,2047,2047,2047,2047,2047,2047,2047,2047,2047,2047,2047,2047,2047,2047,741,741,741,739,739,740,739,738,738,738,737,736,736,735,734,734,733,733,732,730,730,730,730,729,728,729,730,730,2047,694,694,693,694,693,693,693,692,691,691,690,690,690,689,689,687,687,687,686,686,685,685,685,684,684,684,684,684,684,684,683,684,683,682,682,682,682,682,682,682,682,681,681,682,682,682,682,682,683,683,684,687,691,689,690,690,690,691,691,691,691,693,692,694,694,694,694,695,695,695,695,695,698,698,674,673,673,673,672,672,671,671,670,670,669,669,669,669,669,669,669,669,669,669,669,668,669,668,668,668,668,667,667,667,666,665,665,665,664,663,662,661,661,660,659,658,657,656,655,656,656,655,656,655,656,656,657,658,660,661,662,662,662,661,661,661,660,660,660,660,659,659,660,659,660,660,660,660,661,662,662,662,662,662,663,663,663,664,664,664,665,665,666,666,666,667,667,668,669,669,670,670,671,671,672,672,673,675,676,677,678,679,680,681,682,683,684,685,688,688,691,693,693,694,694,1038,1038,1039,1039,1039,1039,1039,1039,1041,1041,1039,1039,1039,1039,1039,1039,1039,1039,1039,1039,1040,1039,1039,1039,1039,1038,1038,1038,1038,1038,1038,1038,1038,1037,1037,1037,1037,1037,1037,1037,1037,1037,1037,1037,1037,1037,1037,1037,1037,1037,1037,1037,1037,1036,1036,1035,1035,1035,1034,1034,1034,1034,1034,1034,1035,1035,1035,1034,1035,1034,1034,1034,1034,1034,1034,1034,1034,1033,1033,1033,1033,1033,1033,1033,1032,1032,1032,1032,1032,1032,1032,1032,1032,1033,1032,1032,1032,1032,1032,1032,1032,1032,1032,1032,1031,1031,1031,1031,1031,1031,1031,1031,2047,2047,2047,2047,2047,2047,2047,2047,2047,2047,2047,2047,2047,2047,2047,2047,2047,2047,2047,2047,2047,2047,2047,2047,2047,2047,2047,2047,2047,2047,2047,2047,2047,2047,2047,2047,2047,2047,2047,2047,2047,2047,2047,2047,2047,2047,2047,2047,2047,2047,2047,2047,2047,2047,2047,2047,2047,2047,2047,2047,2047,548,547,546,546,545,545,545,543,542,542,541,541,540,539,539,536,533,532,2047,2047,2047,2047,2047,2047,2047,2047,510,510,509,509,2047,2047,2047,2047,2047,2047,2047,2047,2047,2047,433,432,429,428,426,2047,2047,2047,2047,2047,2047,2047,2047,2047,2047,2047,2047,2047,466,466,467,467,467,467,466,467,466,466,2047,2047,2047,2047,2047,2047,446,445,444,443,442,441,440,438,437,436,436,436,436,435,435,434,433,433,2047,2047,2047,2047,2047,442,440,439,440,2047,2047,2047,2047,2047,2047,2047,2047,2047,2047,2047,2047,2047,2047,2047,2047,2047,2047,2047,2047,2047,2047,2047,2047,2047,2047,2047,2047,2047,2047,2047,2047,2047,2047,2047,2047,2047,2047,2047,2047,2047,2047,2047,2047,2047,2047,2047,2047,2047,2047,2047,2047,2047,2047,2047,2047,2047,2047,2047,2047,2047,2047,2047,2047,2047,2047,2047,2047,2047,2047,2047,2047,2047,2047,2047,2047,2047,2047,2047,2047,2047,2047,2047,2047,2047,2047,2047
1046,1046,1046,1047,1046,1046,1046,1046,1046,1047,1047,1047,2047,2047,2047,2047,2047,2047,2047,2047,2047,2047,2047,2047,2047,2047,2047,2047,2047,2047,2047,2047,2047,2047,2047,2047,2047,2047,2047,2047,2047,2047,2047,2047,2047,2047,2047,2047,2047,740,740,739,739,739,739,739,739,738,738,738,737,736,735,735,734,734,733,733,732,730,730,730,730,727,2047,2047,2047,2047,2047,694,694,694,694,694,694,694,693,692,691,691,691,690,690,689,688,688,688,687,687,686,686,685,685,685,685,685,685,685,684,684,685,684,683,683,682,683,683,683,682,682,682,682,682,682,683,683,684,684,688,691,689,690,690,690,690,691,691,692,692,693,694,693,693,693,694,693,694,695,695,695,675,675,675,674,673,673,673,672,671,671,670,670,670,669,670,670,670,669,669,669,668,669,669,669,668,668,668,668,668,667,667,666,666,666,665,665,665,664,663,663,661,661,660,659,658,657,656,656,656,656,656,656,656,656,657,657,659,661,661,662,662,662,661,661,661,660,660,660,659,659,659,659,659,659,659,660,660,661,661,662,662,662,662,663,663,663,664,664,664,665,665,666,666,666,666,667,668,669,669,669,670,670,671,671,672,674,675,676,677,678,679,679,681,681,683,684,685,687,688,690,693,693,693,694,1039,1038,1038,1039,1039,1040,1040,1040,1041,1041,1041,1041,1040,1039,1040,1040,1040,1040,1040,1040,1040,1039,1039,1038,1039,1038,1038,1038,1038,1038,1038,1038,1037,1037,1037,1037,1037,1037,1037,1037,1037,1037,1037,1037,1037,1038,1037,1037,1037,1036,1037,1036,1036,1035,1035,1035,1034,1035,1034,1034,1033,1034,1034,1034,1034,1034,1034,1034,1035,1034,1034,1034,1035,1034,1034,1034,1034,1033,1034,1032,1033,1033,1032,1032,1032,1032,1032,1032,1032,1032,1032,1032,1032,1033,1033,1033,1033,1033,1033,1033,1032,1032,1032,1032,1031,1031,1031,1031,1031,1031,1031,2047,2047,2047,2047,2047,2047,2047,2047,2047,2047,2047,2047,2047,2047,2047,2047,2047,2047,2047,2047,2047,2047,2047,2047,2047,2047,2047,2047,2047,2047,2047,2047,2047,2047,2047,2047,2047,2047,2047,2047,2047,2047,2047,2047,2047,2047,2047,2047,2047,2047,2047,2047,2047,2047,2047,2047,2047,2047,2047,2047,2047,2047,548,547,546,545,545,545,544,543,542,541,540,540,539,539,537,535,533,531,531,2047,2047,2047,2047,2047,512,513,510,510,509,508,2047,2047,2047,2047,2047,2047,2047,2047,2047,2047,2047,432,429,428,426,425,425,424,424,2047,2047,2047,2047,2047,2047,2047,2047,465,466,466,467,467,467,467,466,466,465,464,2047,2047,2047,2047,2047,2047,445,444,444,443,442,442,440,439,437,436,436,436,436,435,435,434,433,433,433,433,435,437,437,440,440,439,439,439,2047,2047,2047,2047,2047,2047,2047,2047,2047,2047,2047,2047,2047,2047,2047,2047,2047,2047,2047,2047,2047,2047,2047,2047,2047,2047,2047,2047,2047,2047,2047,2047,2047,2047,2047,2047,2047,2047,2047,2047,2047,2047,2047,2047,2047,2047,2047,2047,2047,2047,2047,2047,2047,2047,2047,2047,2047,2047,2047,2047,2047,2047,2047,2047,2047,2047,2047,2047,2047,2047,2047,2047,2047,2047,2047,2047,2047,2047,2047,2047,2047,2047,2047,2047,2047,2047
1047,1047,1047,1047,1046,1046,1046,1046,1046,1046,2047,2047,2047,2047,2047,2047,2047,2047,2047,2047,2047,2047,2047,2047,2047,2047,2047,2047,2047,2047,2047,2047,2047,2047,2047,2047,2047,2047,2047,2047,2047,2047,2047,2047,2047,2047,2047,2047,741,741,741,740,740,739,739,739,738,738,738,738,737,736,735,734,734,733,732,733,731,731,730,731,730,2047,2047,2047,2047,2047,2047,695,695,695,695,695,695,695,694,693,692,691,691,691,690,690,689,689,688,688,687,687,686,686,685,686,685,685,685,685,685,685,685,684,683,683,683,683,683,683,683,683,683,683,683,684,684,687,691,688,689,690,690,690,690,691,691,692,692,692,692,691,693,691,691,693,693,693,679,679,679,678,676,675,675,674,673,673,672,672,671,670,670,670,670,669,669,669,670,669,669,669,668,669,669,669,668,669,668,668,668,667,667,666,666,666,665,665,665,664,663,663,661,661,660,659,658,657,656,656,656,656,656,656,656,656,657,658,659,661,661,661,661,661,661,661,660,660,660,659,659,659,659,659,659,659,659,660,660,661,661,661,662,662,662,662,663,663,664,664,664,665,665,665,665,666,666,667,668,669,669,669,670,670,671,671,672,673,674,676,677,678,679,680,680,681,682,684,685,687,688,690,692,693,693,694,1038,1038,1038,1038,1038,1040,1040,1040,1040,1041,1040,1040,1040,1040,1041,1040,1040,1040,1040,1040,1040,1040,1039,1039,1039,1039,1038,1039,1038,1038,1038,1038,1038,1037,1037,1037,1037,1037,1037,1037,1037,1037,1037,1037,1037,1038,1038,1037,1036,1036,1036,1036,1036,1035,1035,1035,1035,1035,1035,1034,1034,1034,1034,1034,1034,1034,1034,1034,1034,1034,1034,1034,1034,1034,1034,1035,1034,1035,1034,1033,1033,1033,1032,1032,1032,1032,1032,1032,1032,1032,1032,1032,1032,1032,1033,1033,1033,1032,1033,1033,1033,1032,1032,1032,1032,1031,1032,1032,1032,1032,2047,2047,2047,2047,2047,2047,2047,2047,2047,2047,2047,2047,2047,2047,2047,2047,2047,2047,2047,2047,2047,2047,2047,2047,2047,2047,2047,2047,2047,2047,2047,2047,2047,2047,2047,2047,2047,2047,2047,2047,2047,2047,2047,2047,2047,2047,2047,2047,2047,2047,2047,2047,2047,2047,2047,2047,2047,2047,2047,2047,2047,2047,552,548,549,546,545,545,545,544,543,542,542,541,540,539,538,535,533,532,532,531,2047,2047,2047,2047,512,512,512,510,509,508,508,507,2047,2047,2047,2047,2047,2047,2047,2047,2047,2047,2047,2047,2047,426,426,425,425,424,423,2047,2047,2047,2047,2047,2047,2047,2047,466,466,467,466,467,467,466,466,465,464,2047,2047,2047,2047,2047,2047,446,445,444,443,442,442,440,439,437,436,436,436,435,435,434,434,433,433,432,432,435,436,437,439,440,440,439,440,2047,2047,2047,2047,2047,2047,2047,2047,2047,2047,2047,2047,2047,2047,2047,2047,2047,2047,2047,2047,2047,2047,2047,2047,2047,2047,2047,2047,2047,2047,2047,2047,2047,2047,2047,2047,2047,2047,2047,2047,2047,2047,2047,2047,2047,2047,2047,2047,2047,2047,2047,2047,2047,2047,2047,2047,2047,2047,2047,2047,2047,2047,2047,2047,2047,2047,2047,2047,2047,2047,2047,2047,2047,2047,2047,2047,2047,2047,2047,2047,2047,2047,2047,2047,2047,2047
1047,1047,1047,1047,1047,1047,1046,1047,1047,1047,1047,2047,2047,2047,2047,2047,2047,2047,2047,2047,2047,2047,2047,2047,2047,2047,2047,2047,2047,2047,2047,2047,2047,2047,2047,2047,2047,2047,2047,2047,2047,2047,2047,2047,2047,2047,2047,2047,741,741,741,740,740,739,739,739,738,737,737,737,736,735,735,734,733,732,732,732,731,730,730,731,731,2047,2047,2047,2047,2047,2047,696,697,696,696,695,696,695,694,693,692,692,691,691,691,690,690,689,689,688,687,687,686,686,686,686,686,685,685,685,685,685,685,684,683,683,683,683,684,684,683,683,684,684,684,685,688,690,690,689,690,690,691,691,691,691,691,692,691,691,692,691,693,691,691,691,691,678,679,679,678,677,676,676,675,674,674,673,672,672,671,670,670,670,670,669,669,669,669,669,669,669,669,669,669,669,668,669,669,668,668,668,667,667,667,666,666,665,665,664,665,663,661,661,659,658,658,657,656,656,656,656,656,656,656,657,658,658,659,661,661,661,661,661,661,660,660,659,659,659,659,658,659,659,658,658,659,660,660,660,660,661,662,662,662,662,663,663,664,664,664,665,665,665,665,666,666,667,668,668,669,669,670,670,670,671,672,673,674,675,676,677,678,679,680,681,682,684,685,686,687,691,693,693,694,694,695,1038,1038,1040,1040,1040,1040,1040,1040,1041,1041,1040,1040,1040,1040,1040,1040,1040,1040,1040,1040,1040,1039,1039,1039,1039,1039,1039,1038,1038,1038,1038,1038,1038,1037,1037,1037,1037,1037,1037,1037,1037,1037,1037,1037,1038,1037,1036,1036,1036,1036,1036,1036,1035,1035,1035,1035,1035,1034,1034,1034,1034,1034,1034,1034,1034,1034,1034,1034,1034,1034,1034,1034,1034,1034,1035,1035,1035,1033,1033,1032,1032,1032,1032,1032,1032,1032,1032,1032,1032,1032,1032,1032,1032,1033,1033,1034,1033,1033,1033,1033,1033,1033,1032,1032,1032,1032,1032,1032,2047,2047,2047,2047,2047,2047,2047,2047,2047,2047,2047,2047,2047,2047,2047,2047,2047,2047,2047,2047,2047,2047,2047,2047,2047,2047,2047,2047,2047,2047,2047,2047,2047,2047,2047,2047,2047,2047,2047,2047,2047,2047,2047,2047,2047,2047,2047,2047,2047,2047,2047,2047,2047,2047,2047,2047,2047,2047,2047,2047,2047,2047,2047,550,549,548,548,546,545,545,544,543,543,542,541,540,538,537,534,533,532,531,531,2047,2047,2047,511,510,511,510,509,508,508,507,506,2047,2047,2047,2047,2047,2047,2047,2047,2047,2047,2047,2047,2047,426,425,425,424,424,423,2047,2047,2047,2047,2047,2047,2047,2047,2047,466,467,466,466,466,466,465,465,464,463,463,2047,2047,2047,447,446,445,444,444,443,442,441,439,438,436,436,436,435,435,434,434,433,432,433,433,434,435,436,437,439,440,440,2047,2047,2047,2047,2047,2047,2047,2047,2047,2047,2047,2047,2047,2047,2047,2047,2047,2047,2047,2047,2047,2047,2047,2047,2047,2047,2047,2047,2047,2047,2047,2047,2047,2047,2047,2047,2047,2047,2047,2047,2047,2047,2047,2047,2047,2047,2047,2047,2047,2047,2047,2047,2047,2047,2047,2047,2047,2047,2047,2047,2047,2047,2047,2047,2047,2047,2047,2047,2047,2047,2047,2047,2047,2047,2047,2047,2047,2047,2047,2047,2047,2047,2047,2047,2047,2047,2047
1047,1047,1047,1047,1047,1047,1047,1047,1048,2047,2047,2047,2047,2047,2047,2047,2047,2047,2047,2047,2047,2047,2047,2047,2047,2047,2047,2047,2047,2047,2047,2047,2047,2047,2047,2047,2047,2047,2047,2047,2047,2047,2047,2047,2047,2047,2047,2047,741,741,741,740,740,740,739,739,738,738,737,737,736,735,734,733,733,732,732,732,731,731,730,731,731,731,2047,2047,2047,2047,2047,696,698,697,697,696,697,696,695,694,692,692,692,691,691,691,690,690,689,689,688,687,686,686,686,686,686,686,685,686,686,686,686,685,684,684,685,686,685,686,684,687,688,689,688,688,689,690,690,690,691,691,691,691,691,692,692,692,693,693,693,693,694,692,691,691,691,678,678,678,678,678,676,676,675,674,673,673,672,672,671,670,670,670,670,669,669,669,669,669,669,669,669,669,669,669,669,669,669,669,668,668,668,667,667,666,666,665,665,665,665,663,661,660,659,658,658,657,657,656,656,656,656,656,656,657,658,658,659,660,661,661,661,660,660,660,659,659,659,658,658,658,659,659,658,658,659,660,660,660,660,661,662,662,662,662,663,663,663,664,664,665,665,665,665,666,666,667,667,668,668,669,669,670,670,671,672,673,674,675,676,677,678,679,680,681,682,684,685,686,688,690,693,693,694,694,695,1038,1038,1040,1040,1040,1040,1040,1040,1041,1041,1040,1040,1040,1040,1040,1040,1040,1040,1040,1040,1040,1039,1039,1039,1039,1039,1039,1039,1038,1038,1038,1038,1037,1037,1037,1037,1037,1037,1037,1037,1037,1037,1037,1037,1038,1037,1036,1036,1036,1036,1036,1036,1035,1035,1035,1035,1035,1034,1034,1034,1035,1034,1034,1034,1034,1035,1034,1034,1033,1034,1034,1033,1034,1034,1034,1034,1034,1033,1033,1032,1032,1032,1032,1032,1032,1032,1032,1032,1032,1032,1032,1032,1032,1033,1033,1034,1034,977,977,977,977,977,976,976,976,976,976,977,2047,2047,2047,2047,2047,2047,2047,2047,2047,2047,2047,2047,2047,2047,2047,2047,2047,2047,2047,2047,2047,2047,2047,2047,2047,2047,2047,2047,2047,2047,2047,2047,2047,2047,2047,2047,2047,2047,2047,2047,2047,2047,2047,2047,2047,2047,2047,2047,2047,2047,2047,2047,2047,2047,2047,2047,2047,2047,2047,2047,2047,2047,2047,549,548,548,547,545,545,544,544,543,542,541,540,540,538,536,534,533,532,531,531,531,2047,510,510,509,511,510,509,508,507,507,506,506,2047,2047,2047,2047,2047,2047,2047,2047,2047,2047,2047,2047,425,424,424,424,423,423,422,2047,2047,2047,2047,2047,2047,2047,2047,2047,466,466,466,466,465,465,464,463,462,2047,2047,2047,2047,447,446,445,445,444,443,443,441,440,438,437,437,436,435,435,434,434,433,432,433,433,433,435,436,437,438,439,440,2047,2047,2047,2047,2047,2047,2047,2047,2047,2047,2047,2047,2047,2047,2047,2047,2047,2047,2047,2047,2047,2047,2047,2047,2047,2047,2047,2047,2047,2047,2047,2047,2047,2047,2047,2047,2047,2047,2047,2047,2047,2047,2047,2047,2047,2047,2047,2047,2047,2047,2047,2047,2047,2047,2047,2047,2047,2047,2047,2047,2047,2047,2047,2047,2047,2047,2047,2047,2047,2047,2047,2047,2047,2047,2047,2047,2047,2047,2047,2047,2047,2047,2047,2047,2047,2047,2047
1047,1047,1047,1047,1047,1047,1046,1046,2047,2047,2047,2047,2047,2047,2047,2047,2047,2047,2047,2047,2047,2047,2047,2047,2047,2047,2047,2047,2047,2047,2047,2047,2047,2047,2047,2047,2047,2047,2047,2047,2047,2047,2047,2047,2047,2047,2047,741,741,742,740,740,740,739,739,738,738,737,737,737,736,735,734,733,733,732,732,732,731,731,730,732,731,2047,2047,2047,2047,2047,2047,2047,697,697,698,697,698,697,696,694,692,692,692,691,691,691,690,690,689,689,688,687,686,686,686,686,686,685,685,685,686,686,686,685,685,685,687,688,688,689,689,690,690,690,690,690,690,691,691,690,691,691,691,691,691,692,692,692,693,693,693,694,694,694,691,691,679,678,678,678,678,677,676,676,675,673,673,673,672,672,671,670,670,670,670,669,669,669,670,669,669,669,669,669,669,669,669,669,669,669,669,668,668,667,667,666,666,666,666,665,664,663,661,660,659,658,658,657,657,656,656,657,656,657,657,657,658,658,659,660,660,660,660,660,660,660,659,659,658,658,658,658,658,659,658,658,658,659,659,660,660,661,662,662,662,662,663,663,663,663,664,665,665,665,665,666,666,667,667,668,668,669,669,670,670,671,672,673,674,675,676,677,678,679,679,680,681,684,684,686,687,689,692,693,693,694,695,1038,1038,1040,1040,1040,1040,1040,1040,1040,1040,1040,1040,1040,1040,1040,1041,1040,1040,1040,1040,1039,1039,1039,1039,1039,1039,1038,1038,1038,1038,1038,1038,1038,1038,1038,1038,1037,1038,1037,1037,1038,1037,1037,1038,1038,1038,1037,1037,1037,1037,1037,1036,1036,1036,1035,1035,1035,1034,1034,1034,1035,1035,1034,1034,1034,1034,1033,1033,1033,1033,1033,1033,1033,1033,1033,1033,1033,1033,1033,1033,1033,1032,1032,1032,1032,1032,1032,1032,1032,1032,1032,1032,1032,1032,975,975,975,974,974,975,976,976,976,976,977,977,977,976,976,977,2047,2047,2047,2047,2047,2047,2047,2047,2047,2047,2047,2047,2047,2047,2047,2047,2047,2047,2047,2047,2047,2047,2047,2047,2047,2047,2047,2047,2047,2047,2047,2047,2047,2047,2047,2047,2047,2047,2047,2047,2047,2047,2047,2047,2047,2047,2047,2047,2047,2047,2047,2047,2047,2047,2047,2047,2047,2047,2047,552,552,550,549,548,546,545,545,544,543,543,542,541,540,539,537,536,534,533,532,531,530,530,529,2047,508,508,511,510,510,509,508,507,2047,2047,2047,2047,2047,2047,2047,2047,2047,2047,2047,2047,2047,2047,428,425,425,424,423,422,421,420,420,419,417,2047,2047,2047,2047,2047,2047,2047,465,464,464,463,463,463,462,2047,2047,2047,2047,449,445,445,445,444,443,441,440,439,437,437,436,436,435,434,434,433,432,432,432,432,433,435,436,437,439,443,443,443,2047,2047,2047,2047,2047,2047,2047,2047,2047,2047,2047,2047,2047,2047,2047,2047,2047,2047,2047,2047,2047,2047,2047,2047,2047,2047,2047,2047,2047,2047,2047,2047,2047,2047,2047,2047,2047,2047,2047,2047,2047,2047,2047,2047,2047,2047,2047,2047,2047,2047,2047,2047,2047,2047,2047,2047,2047,2047,2047,2047,2047,2047,2047,2047,2047,2047,2047,2047,2047,2047,2047,2047,2047,2047,2047,2047,2047,2047,2047,2047,2047,2047,2047,2047,2047,2047
2047,2047,2047,2047,2047,2047,2047,2047,2047,2047,2047,2047,2047,2047,2047,2047,2047,2047,2047,2047,2047,2047,2047,2047,2047,2047,2047,2047,2047,2047,2047,2047,2047,2047,2047,2047,2047,2047,2047,2047,2047,2047,2047,2047,2047,2047,742,742,741,740,740,740,739,739,739,738,738,737,737,736,735,734,734,733,732,731,731,731,731,731,730,731,730,730,728,2047,2047,2047,2047,698,698,698,698,697,697,696,695,694,693,692,691,691,691,690,690,690,689,688,687,686,686,686,686,686,685,685,685,685,686,686,686,687,688,688,689,690,690,690,690,691,691,691,691,691,691,691,691,691,691,691,691,691,692,692,692,692,692,692,693,693,691,691,691,678,678,678,677,677,677,676,675,675,674,673,673,672,672,671,671,670,670,670,670,669,669,669,670,670,669,669,669,670,669,669,669,669,669,669,668,668,667,666,666,666,665,665,665,664,663,662,660,659,658,658,657,657,656,656,656,656,656,656,656,657,657,658,659,660,660,660,659,659,659,658,658,658,658,658,658,658,658,658,658,658,658,658,659,659,659,660,661,661,661,661,662,662,662,663,663,664,664,665,665,665,666,666,666,667,668,669,669,670,670,670,671,671,672,674,675,676,677,678,678,679,680,682,684,685,686,687,690,692,692,693,693,1038,1039,1040,1040,1040,1040,1040,1040,1040,1040,1040,1040,1040,1040,1040,1040,1040,1040,1039,1040,1039,1039,1039,1038,1038,1038,1038,1038,1038,1038,1038,1038,1038,1038,1038,1038,1037,1038,1037,1037,1038,1037,1038,1038,1038,1038,1037,1037,1036,1037,1036,1036,1036,1036,1035,1035,1035,1034,1034,1034,1034,1034,1034,1034,1034,1035,1034,1034,1033,1033,1033,1033,1033,1033,1033,1033,1033,1033,1033,1033,1033,1033,1033,1032,1032,1032,1032,1032,1032,1032,1032,1032,977,976,975,975,975,977,975,976,976,976,976,976,977,977,977,976,976,976,976,2047,2047,2047,2047,2047,2047,2047,2047,2047,2047,2047,2047,2047,2047,2047,2047,2047,2047,2047,2047,2047,2047,2047,2047,2047,2047,2047,2047,2047,2047,2047,2047,2047,2047,2047,2047,2047,2047,2047,2047,2047,2047,2047,2047,2047,2047,2047,2047,2047,2047,2047,2047,2047,2047,2047,2047,2047,552,551,551,549,548,547,546,545,545,544,544,543,542,541,540,538,537,536,534,533,532,531,530,529,2047,508,508,508,509,509,509,508,507,506,506,2047,2047,2047,2047,2047,2047,2047,2047,2047,2047,2047,2047,2047,2047,425,425,424,423,422,421,420,420,419,418,2047,2047,2047,2047,2047,2047,464,464,464,464,463,463,462,461,459,459,458,449,449,447,447,446,444,443,441,440,439,437,437,436,436,435,434,434,433,432,432,432,432,432,434,435,437,438,442,2047,2047,2047,2047,2047,2047,2047,2047,2047,2047,2047,2047,2047,2047,2047,2047,2047,2047,2047,2047,2047,2047,2047,2047,2047,2047,2047,2047,2047,2047,2047,2047,2047,2047,2047,2047,2047,2047,2047,2047,2047,2047,2047,2047,2047,2047,2047,2047,2047,2047,2047,2047,2047,2047,2047,2047,2047,2047,2047,2047,2047,2047,2047,2047,2047,2047,2047,2047,2047,2047,2047,2047,2047,2047,2047,2047,2047,2047,2047,2047,2047,2047,2047,2047,2047,2047,2047,2047
2047,2047,2047,2047,2047,2047,2047,2047,2047,2047,2047,2047,2047,2047,2047,2047,2047,2047,2047,2047,2047,2047,2047,2047,2047,2047,2047,2047,2047,2047,2047,2047,2047,2047,2047,2047,2047,2047,2047,2047,2047,2047,2047,2047,2047,741,740,740,740,740,739,739,739,738,738,738,737,736,736,736,735,734,734,732,732,731,731,731,731,731,730,731,730,730,729,2047,2047,2047,2047,2047,698,698,698,697,697,696,696,694,692,692,692,691,691,690,690,690,689,687,687,686,686,686,686,686,686,685,685,686,686,686,687,688,690,690,690,690,690,691,691,691,691,691,691,691,691,691,691,691,691,691,691,691,692,692,692,692,692,692,692,692,692,692,683,680,678,678,678,678,678,676,675,674,674,672,672,672,671,671,671,670,670,670,670,669,669,669,670,670,669,669,669,670,669,669,669,669,669,669,668,668,667,666,666,665,665,665,665,664,663,662,659,659,658,657,657,656,656,655,655,655,655,656,656,657,658,659,659,660,660,659,659,658,658,658,658,658,658,658,658,658,658,658,658,658,658,659,659,659,659,660,661,661,661,661,662,662,662,662,663,664,664,665,665,665,666,666,667,667,668,669,669,670,670,670,671,671,671,673,675,676,677,678,678,679,680,681,684,685,686,686,688,689,691,692,692,1038,1039,1040,1040,1040,1041,1040,1040,1040,1040,1040,1040,1040,1040,1041,1041,1040,1040,1040,1040,1039,1039,1038,1038,1038,1038,1038,1038,1038,1038,1038,1038,1037,1038,1038,1038,1037,1037,1037,1037,1037,1037,1037,1037,1037,1037,1037,1036,1036,1036,1036,1036,1035,1035,1035,1035,1035,1035,1035,1035,1035,1035,1034,1035,1034,1035,1035,1034,1034,1033,1033,1033,1034,1033,1033,1033,1033,1033,1033,1033,1033,1033,1033,1032,1033,1032,1032,1032,1032,1032,1032,977,977,976,976,975,975,975,975,976,976,976,976,976,976,977,977,976,976,977,976,2047,2047,2047,2047,2047,2047,2047,2047,2047,2047,2047,2047,2047,2047,2047,2047,2047,2047,2047,2047,2047,2047,2047,2047,2047,2047,2047,2047,2047,2047,2047,2047,2047,2047,2047,2047,2047,2047,2047,2047,2047,2047,2047,2047,2047,2047,2047,2047,2047,2047,2047,2047,2047,2047,2047,2047,2047,552,550,550,549,548,547,546,545,544,544,543,542,542,541,540,538,537,536,534,533,532,531,530,529,529,508,508,508,509,508,508,508,506,505,504,503,2047,2047,2047,2047,2047,2047,2047,2047,2047,2047,2047,2047,2047,2047,425,424,423,422,421,421,420,420,419,418,416,2047,2047,2047,416,2047,412,462,462,463,463,462,460,459,458,458,450,450,449,447,447,444,443,441,440,439,438,437,436,435,434,433,433,432,432,432,432,432,432,433,436,436,436,440,438,2047,2047,2047,2047,2047,2047,2047,2047,2047,2047,2047,2047,2047,2047,2047,2047,2047,2047,2047,2047,2047,2047,2047,2047,2047,2047,2047,2047,2047,2047,2047,2047,2047,2047,2047,2047,2047,2047,2047,2047,2047,2047,2047,2047,2047,2047,2047,2047,2047,2047,2047,2047,2047,2047,2047,2047,2047,2047,2047,2047,2047,2047,2047,2047,2047,2047,2047,2047,2047,2047,2047,2047,2047,2047,2047,2047,2047,2047,2047,2047,2047,2047,2047,2047,2047,2047,2047
2047,2047,2047,2047,2047,2047,2047,2047,2047,2047,2047,2047,2047,2047,2047,2047,2047,2047,2047,2047,2047,2047,2047,2047,2047,2047,2047,2047,2047,2047,2047,2047,2047,2047,2047,2047,2047,2047,2047,2047,2047,2047,2047,741,741,741,741,741,740,739,739,739,738,738,738,737,737,736,736,735,735,734,733,732,731,731,731,731,731,730,730,731,730,730,729,727,2047,2047,2047,2047,699,699,698,697,697,696,695,694,693,692,692,691,691,690,690,689,688,687,687,687,687,687,687,686,686,686,686,686,687,687,687,689,691,691,691,691,691,691,691,691,691,691,691,691,691,691,691,691,691,691,691,691,691,691,691,691,691,691,691,691,691,683,680,678,678,678,677,678,678,676,675,674,674,672,671,671,671,670,670,670,670,670,670,669,670,670,670,670,670,670,670,670,670,670,669,669,669,669,668,668,667,666,666,666,666,665,665,664,663,661,659,659,658,657,657,656,656,655,655,655,655,656,656,657,658,659,659,659,659,659,658,658,658,658,658,657,657,657,658,658,658,658,658,658,658,659,659,659,659,660,661,661,661,661,662,662,663,663,663,663,664,664,665,665,666,666,667,667,668,669,669,670,670,670,671,671,672,673,674,676,677,678,678,679,680,681,683,685,685,686,687,688,690,690,1038,1038,1039,1039,1039,1040,1040,1040,1040,1040,1040,1040,1040,1040,1040,1041,1041,1040,1040,1039,1039,1039,1039,1039,1038,1038,1038,1038,1038,1038,1038,1038,1038,1038,1038,1038,1038,1037,1038,1037,1037,1038,1037,1037,1037,1037,1037,1036,1036,1036,1036,1036,1035,1035,1035,1035,1034,1034,1034,1034,1034,1034,1034,1034,1034,1034,1035,1034,1034,1033,1033,1033,1033,1033,1033,1033,1033,1033,1033,1033,1033,1033,1033,1033,1032,1032,1032,1032,1032,1032,1032,977,977,977,976,976,976,976,976,976,976,976,976,976,976,976,976,977,976,976,976,976,976,2047,2047,2047,2047,2047,2047,2047,2047,2047,2047,2047,2047,2047,2047,2047,2047,2047,2047,2047,2047,2047,2047,2047,2047,2047,2047,2047,2047,2047,2047,2047,2047,2047,2047,2047,2047,2047,2047,2047,2047,2047,2047,2047,2047,2047,2047,2047,2047,2047,2047,2047,2047,2047,2047,2047,2047,551,550,549,548,547,546,545,544,544,544,543,542,541,541,539,537,536,535,534,533,532,531,530,529,529,508,508,508,509,508,508,507,506,504,503,502,501,501,2047,2047,2047,2047,2047,2047,2047,2047,2047,2047,2047,2047,2047,424,423,422,421,421,420,420,419,418,417,417,416,416,416,415,412,412,412,412,462,461,460,458,458,456,456,449,449,448,446,445,444,442,441,439,438,437,436,435,434,433,433,432,432,432,432,432,432,433,436,435,436,440,438,439,2047,2047,2047,2047,2047,2047,2047,2047,2047,2047,2047,2047,2047,2047,2047,2047,2047,2047,2047,2047,2047,2047,2047,2047,2047,2047,2047,2047,2047,2047,2047,2047,2047,2047,2047,2047,2047,2047,2047,2047,2047,2047,2047,2047,2047,2047,2047,2047,2047,2047,2047,2047,2047,2047,2047,2047,2047,2047,2047,2047,2047,2047,2047,2047,2047,2047,2047,2047,2047,2047,2047,2047,2047,2047,2047,2047,2047,2047,2047,2047,2047,2047,2047,2047,2047,2047
2047,2047,2047,2047,2047,2047,2047,2047,2047,2047,2047,2047,2047,2047,2047,2047,2047,2047,2047,2047,2047,2047,2047,2047,2047,2047,2047,2047,2047,2047,2047,2047,2047,2047,2047,2047,2047,2047,2047,2047,2047,2047,742,741,741,741,740,740,740,739,739,739,738,738,737,737,736,736,735,735,735,733,732,731,731,731,731,731,731,730,730,730,729,729,728,727,2047,2047,2047,2047,2047,698,698,698,698,697,696,695,693,692,692,692,691,690,690,689,688,687,687,687,687,687,687,687,687,686,686,687,687,687,688,690,691,691,692,692,692,692,692,692,692,692,692,692,692,692,691,692,692,692,691,691,691,691,691,690,690,690,690,690,683,682,679,678,678,678,677,677,677,676,675,675,674,672,672,671,671,671,671,670,670,670,670,670,670,670,670,670,670,670,670,670,670,670,670,669,669,669,668,668,667,666,666,666,666,665,665,664,663,661,659,659,658,657,657,657,656,656,656,656,656,656,657,657,658,659,658,659,659,658,658,658,658,658,658,657,657,657,658,658,658,658,658,658,658,659,660,659,660,660,661,661,661,661,662,662,662,663,663,663,664,664,665,665,666,666,667,667,668,669,669,670,670,670,671,671,671,673,674,676,676,678,678,679,681,681,683,684,685,686,686,687,689,689,1037,1037,1039,1039,1039,1040,1041,1040,1040,1040,1040,1040,1040,1040,1040,1041,1040,1040,1040,1039,1040,1039,1039,1039,1038,1038,1038,1038,1038,1038,1038,1038,1038,1038,1038,1038,1038,1037,1037,1037,1037,1037,1037,1037,1037,1037,1037,1036,1036,1036,1036,1036,1035,1035,1035,1035,1034,1034,1034,1034,1034,1034,1034,1034,1034,1034,1035,1035,1034,1034,1033,1033,1033,1033,1033,1033,1033,1033,1033,1033,1034,1033,1033,1033,1033,1033,1032,1032,1032,979,977,2047,977,977,976,977,976,976,976,976,976,976,976,976,976,976,976,977,976,976,976,976,976,2047,2047,2047,2047,2047,2047,2047,2047,2047,2047,2047,2047,2047,2047,2047,2047,2047,2047,2047,2047,2047,2047,2047,2047,2047,2047,2047,2047,2047,2047,2047,2047,2047,2047,2047,2047,2047,2047,2047,2047,2047,2047,2047,2047,2047,2047,2047,2047,2047,2047,2047,2047,2047,2047,2047,2047,551,549,548,547,546,545,545,544,543,544,542,541,541,540,539,537,536,535,533,532,531,531,530,529,529,508,508,508,508,508,507,506,505,504,503,502,501,500,2047,2047,2047,2047,2047,2047,2047,2047,2047,2047,2047,2047,2047,424,423,422,422,422,420,420,419,418,417,417,416,416,415,415,413,412,412,412,412,412,459,456,456,454,454,451,450,449,446,444,443,441,441,439,438,437,435,434,433,432,432,432,432,431,431,432,432,433,435,435,436,436,438,439,2047,2047,2047,2047,2047,2047,2047,2047,2047,2047,2047,2047,2047,2047,2047,2047,2047,2047,2047,2047,2047,2047,2047,2047,2047,2047,2047,2047,2047,2047,2047,2047,2047,2047,2047,2047,2047,2047,2047,2047,2047,2047,2047,2047,2047,2047,2047,2047,2047,2047,2047,2047,2047,2047,2047,2047,2047,2047,2047,2047,2047,2047,2047,2047,2047,2047,2047,2047,2047,2047,2047,2047,2047,2047,2047,2047,2047,2047,2047,2047,2047,2047,2047,2047,2047,2047
2047,2047,2047,2047,2047,2047,2047,2047,2047,2047,2047,2047,2047,2047,2047,2047,2047,2047,2047,2047,2047,2047,2047,2047,2047,2047,2047,2047,2047,2047,2047,2047,2047,2047,2047,2047,2047,2047,2047,2047,2047,741,741,740,740,740,739,739,739,739,738,738,738,738,737,737,736,735,735,735,734,733,732,731,731,731,731,731,731,730,730,730,729,730,729,728,2047,2047,2047,2047,2047,2047,2047,2047,697,696,696,695,694,693,693,692,691,691,690,689,689,688,687,687,687,688,688,688,688,687,688,688,688,688,688,691,691,692,692,692,692,692,692,692,692,692,692,692,692,692,692,692,692,692,691,691,691,691,691,690,689,684,683,682,682,681,679,679,678,678,678,677,677,676,675,674,674,672,672,671,671,670,670,670,670,670,670,670,670,670,670,670,670,670,670,670,670,670,669,670,669,669,669,668,667,666,666,666,665,665,665,664,663,661,659,658,658,657,657,656,656,655,655,656,656,657,657,658,658,659,659,659,659,658,658,658,658,658,658,657,657,657,657,657,657,657,657,658,658,659,659,659,660,660,661,661,661,662,662,662,663,663,663,663,664,664,665,665,665,666,666,667,668,669,669,669,670,670,670,671,672,673,675,676,676,677,678,679,681,681,683,684,685,686,686,687,689,689,1037,1037,1038,1039,1039,1040,1041,1041,1041,1041,1041,1041,1041,1041,1041,1041,1041,1041,1040,1039,1039,1039,1039,1038,1038,1039,1038,1038,1038,1038,1038,1038,1038,1038,1038,1038,1038,1038,1038,1037,1037,1037,1037,1037,1037,1037,1037,1036,1036,1036,1036,1035,1035,1035,1034,1034,1034,1034,1034,1034,1034,1034,1034,1034,1034,1033,1034,1033,1035,1034,1034,1033,1033,1033,1033,1033,1033,1033,1033,1033,1033,1033,1033,1033,1032,1032,1032,980,980,2047,977,977,977,977,977,977,976,976,976,976,976,976,976,976,976,976,976,977,976,976,976,976,976,2047,2047,2047,2047,2047,2047,2047,2047,2047,2047,2047,2047,2047,2047,2047,2047,2047,2047,2047,2047,2047,2047,2047,2047,2047,2047,2047,2047,2047,2047,2047,2047,2047,2047,2047,2047,2047,2047,2047,2047,2047,2047,2047,2047,2047,2047,2047,2047,2047,2047,2047,2047,2047,2047,2047,2047,550,549,548,546,546,545,545,544,543,543,542,541,540,539,538,537,536,535,533,532,531,530,529,529,529,529,508,508,508,507,507,506,505,503,502,501,500,500,500,2047,2047,2047,2047,2047,2047,2047,2047,2047,2047,2047,2047,425,424,423,423,423,421,420,419,419,417,417,417,416,415,414,413,413,413,412,413,412,412,412,454,453,452,451,450,448,445,443,443,441,441,439,438,437,435,433,432,432,432,431,431,431,431,431,432,432,433,434,434,434,437,2047,2047,2047,2047,2047,2047,2047,2047,2047,2047,2047,2047,2047,2047,2047,2047,2047,2047,2047,2047,2047,2047,2047,2047,2047,2047,2047,2047,2047,2047,2047,2047,2047,2047,2047,2047,2047,2047,2047,2047,2047,2047,2047,2047,2047,2047,2047,2047,2047,2047,2047,2047,2047,2047,2047,2047,2047,2047,2047,2047,2047,2047,2047,2047,2047,2047,2047,2047,2047,2047,2047,2047,2047,2047,2047,2047,2047,2047,2047,2047,2047,2047,2047,2047,2047,2047,2047
2047,2047,2047,2047,2047,2047,2047,2047,2047,2047,2047,2047,2047,2047,2047,2047,2047,2047,2047,2047,2047,2047,2047,2047,2047,2047,2047,2047,2047,2047,2047,2047,2047,2047,2047,2047,2047,2047,2047,2047,740,740,740,740,740,739,739,739,739,738,738,738,737,738,737,737,736,735,735,734,734,732,732,731,731,730,730,730,730,730,729,729,729,730,730,729,2047,2047,2047,2047,2047,2047,2047,2047,2047,697,696,695,694,694,694,693,692,691,691,690,689,689,688,688,688,689,689,689,689,689,689,690,690,693,693,693,693,693,693,693,693,693,692,692,692,692,692,692,692,692,692,692,692,692,691,691,691,691,690,689,684,683,682,682,680,680,679,679,679,679,678,678,678,676,675,675,674,672,672,671,671,670,670,670,670,670,670,670,670,670,670,670,670,670,670,670,670,670,670,670,670,670,668,668,667,666,666,665,665,665,664,664,662,661,659,658,658,656,656,656,655,655,655,655,656,657,657,658,658,659,659,659,658,658,658,658,658,658,658,657,657,657,657,657,657,657,657,658,658,659,659,659,660,660,661,661,661,662,662,662,663,663,663,664,664,664,665,665,665,666,666,666,667,668,668,669,670,670,670,671,672,674,675,676,676,677,678,679,680,681,683,684,685,686,686,687,689,690,690,696,696,1039,1040,1041,1041,1041,1041,1041,1041,1041,1041,1041,1041,1041,1040,1041,1040,1039,1039,1039,1038,1038,1038,1039,1038,1038,1038,1038,1038,1038,1038,1038,1039,1038,1038,1038,1038,1037,1037,1038,1037,1037,1037,1037,1037,1036,1036,1035,1035,1035,1035,1035,1035,1035,1034,1035,1035,1035,1034,1034,1034,1034,1034,1033,1034,1034,1035,1035,1034,1034,1033,1033,1033,1033,1033,1033,1033,1033,1033,1033,1033,1032,1032,1032,981,980,980,979,978,978,977,977,977,977,976,977,977,976,976,976,976,976,976,976,976,976,976,976,976,976,976,2047,2047,2047,2047,2047,2047,2047,2047,2047,2047,2047,2047,2047,2047,2047,2047,2047,2047,2047,2047,2047,2047,2047,2047,2047,2047,2047,2047,2047,2047,2047,2047,2047,2047,2047,2047,2047,2047,2047,2047,2047,2047,2047,2047,2047,2047,2047,2047,2047,2047,2047,2047,558,558,2047,2047,549,547,546,546,546,545,544,544,543,543,542,541,539,539,537,536,535,534,533,531,531,530,530,513,513,512,511,510,509,508,507,506,505,504,501,501,500,500,2047,2047,2047,2047,2047,2047,2047,2047,2047,2047,2047,2047,430,429,428,427,426,425,423,421,419,418,417,416,416,416,415,415,416,414,413,413,413,412,412,412,412,412,451,449,447,446,444,441,440,439,439,438,437,435,435,434,433,432,432,432,432,432,432,432,432,433,435,435,436,437,438,438,400,400,399,398,398,397,397,2047,2047,2047,2047,2047,2047,2047,2047,2047,2047,2047,391,392,392,392,392,396,396,395,396,395,395,393,392,390,389,388,388,387,386,385,383,382,381,380,379,377,376,373,372,371,2047,2047,2047,2047,2047,365,364,363,363,363,362,361,2047,359,359,2047,2047,2047,2047,2047,2047,2047,2047,2047,2047,2047,2047,2047,342,339,339,338,337,336,338,2047,2047,2047
2047,2047,2047,2047,2047,2047,2047,2047,2047,2047,2047,2047,2047,2047,2047,2047,2047,2047,2047,2047,2047,2047,2047,2047,2047,2047,2047,2047,2047,2047,2047,2047,2047,2047,2047,2047,2047,2047,741,741,740,739,739,739,739,739,738,738,738,738,737,737,736,736,735,735,735,734,734,733,733,732,731,730,730,729,729,729,729,728,728,728,727,728,2047,2047,2047,2047,2047,2047,2047,2047,2047,2047,2047,2047,696,695,694,694,693,692,692,691,691,690,690,689,689,689,689,689,689,690,690,689,688,2047,2047,2047,2047,2047,2047,2047,2047,693,692,692,691,691,691,692,691,691,691,691,691,691,691,691,691,691,684,684,684,683,682,681,681,680,680,679,679,679,679,679,678,678,677,675,675,674,674,671,670,670,670,670,669,670,669,669,670,670,670,670,670,670,670,669,670,670,669,669,669,669,669,669,668,667,667,666,666,665,664,663,662,662,661,660,658,658,657,655,655,654,654,654,654,655,655,656,657,658,658,659,659,659,659,658,658,657,657,657,657,657,657,657,656,656,656,656,656,657,657,658,658,659,659,660,660,660,661,661,661,662,662,662,663,663,663,663,664,664,665,665,665,666,667,667,668,668,669,669,670,670,672,673,674,674,675,676,677,678,680,681,682,683,684,686,688,689,689,690,693,695,696,1040,1040,1040,1040,1040,1040,1040,1040,1040,1040,1041,1041,1041,1040,1041,1040,1040,1040,1039,1039,1039,1039,1039,1039,1039,1038,1038,1038,1038,1038,1038,1038,1038,1038,1038,1038,1037,1037,1038,1037,1037,1037,1037,1037,1036,1035,1035,1035,1035,1035,1035,1035,1035,1034,1035,1036,1035,1034,1034,1033,1033,1034,1034,1034,1034,1034,1034,1034,1034,1034,1034,1034,1033,1033,1033,1033,1033,1033,1033,2047,2047,2047,978,977,977,977,977,977,977,977,977,977,977,977,977,977,977,977,977,977,977,977,977,977,977,976,976,976,976,976,2047,2047,2047,2047,2047,2047,2047,2047,2047,2047,2047,2047,2047,2047,2047,2047,2047,2047,2047,2047,2047,2047,2047,2047,2047,2047,2047,2047,2047,2047,2047,2047,2047,2047,2047,2047,2047,2047,2047,2047,2047,2047,2047,2047,2047,2047,2047,2047,2047,2047,2047,2047,558,557,556,556,549,547,546,545,545,545,544,544,543,543,542,541,540,539,537,536,535,534,533,532,532,531,531,513,513,511,510,509,508,508,507,505,504,503,502,500,499,499,498,2047,2047,2047,2047,2047,2047,2047,2047,2047,2047,431,431,430,429,428,427,426,424,422,420,418,417,416,416,416,415,415,415,414,413,413,413,412,412,412,412,451,450,448,446,445,443,440,440,439,439,438,437,435,434,433,432,432,432,431,432,432,432,432,432,433,434,435,435,436,436,436,400,400,400,399,399,398,399,2047,2047,2047,2047,2047,2047,2047,2047,2047,2047,2047,2047,392,392,392,392,393,395,395,395,395,395,393,392,390,389,388,388,387,386,385,383,382,380,380,378,377,375,373,372,371,371,370,369,368,365,365,364,363,363,363,362,361,360,359,358,358,357,357,356,356,2047,2047,2047,2047,2047,2047,2047,2047,341,340,339,339,338,338,338,2047,2047,2047
2047,2047,2047,2047,2047,2047,2047,2047,2047,2047,2047,2047,2047,2047,2047,2047,2047,2047,2047,2047,2047,2047,2047,2047,2047,2047,2047,2047,2047,2047,2047,2047,2047,2047,2047,2047,2047,2047,2047,740,740,739,739,738,738,738,738,738,738,737,737,736,736,735,735,735,735,734,733,733,732,732,731,730,730,729,729,729,728,728,727,727,727,726,726,2047,2047,2047,2047,2047,2047,2047,2047,2047,2047,2047,697,695,695,694,694,693,692,692,691,691,691,690,691,690,691,691,691,692,692,692,691,693,2047,2047,2047,2047,2047,2047,2047,2047,692,692,692,692,691,692,692,691,691,691,691,691,691,691,690,684,683,683,683,682,682,681,680,680,680,679,679,679,679,679,678,678,677,675,675,674,674,670,671,670,670,670,669,670,669,669,670,669,670,670,670,670,670,670,670,670,670,670,670,669,669,669,668,668,667,666,666,665,664,663,662,662,661,660,658,658,657,655,655,654,654,654,654,655,655,657,657,658,659,659,659,659,659,658,658,658,657,657,657,657,657,656,656,656,657,657,657,657,658,658,659,659,660,660,660,661,661,661,661,661,662,662,663,663,663,663,664,664,664,665,665,666,667,667,668,668,669,669,670,670,672,673,674,674,675,676,677,680,680,681,682,682,683,685,688,689,689,690,692,694,695,1040,1040,1040,1041,1040,1040,1040,1040,1040,1040,1040,1040,1040,1040,1040,1040,1039,1039,1039,1038,1039,1039,1039,1039,1039,1038,1038,1038,1038,1038,1038,1038,1038,1038,1038,1038,1037,1037,1037,1037,1037,1037,1036,1036,1035,1035,1035,1035,1035,1035,1035,1035,1035,1034,1035,1036,1035,1035,1034,1033,1033,1034,1034,1034,1034,1034,1034,1034,1034,1035,1034,1034,1033,1033,1033,1033,1033,1033,2047,2047,978,978,978,978,978,978,977,977,977,977,977,977,977,976,977,977,977,977,977,977,977,977,976,976,976,976,976,976,976,2047,2047,2047,2047,2047,2047,2047,2047,2047,2047,2047,2047,2047,2047,2047,2047,2047,2047,2047,2047,2047,2047,2047,2047,2047,2047,2047,2047,2047,2047,2047,2047,2047,2047,2047,2047,2047,2047,2047,2047,2047,2047,2047,2047,2047,2047,2047,2047,2047,2047,2047,557,557,557,557,556,556,546,546,545,545,545,545,544,544,543,543,541,541,539,538,537,536,535,534,532,532,531,530,530,512,512,511,509,509,508,507,506,505,504,502,501,500,498,498,497,497,2047,2047,2047,2047,2047,2047,2047,2047,2047,431,431,430,429,428,428,427,425,423,422,419,418,417,417,416,415,415,414,414,413,413,413,412,412,412,412,451,450,448,446,444,442,440,440,439,438,438,437,436,434,433,432,432,432,432,432,432,432,432,432,433,434,434,434,435,435,435,401,400,398,398,399,398,399,396,2047,2047,2047,2047,2047,2047,2047,2047,2047,2047,2047,391,392,392,391,392,393,393,393,395,395,392,392,390,389,388,387,387,386,384,383,381,380,380,379,377,376,373,372,371,371,370,369,368,366,365,364,363,363,363,362,360,360,358,358,358,358,357,357,356,2047,2047,2047,2047,2047,2047,2047,343,342,341,340,340,339,339,339,2047,2047,2047
2047,2047,2047,2047,2047,2047,2047,2047,2047,2047,2047,2047,2047,2047,2047,2047,2047,2047,2047,2047,2047,2047,2047,2047,2047,2047,2047,2047,2047,2047,2047,2047,2047,2047,2047,2047,2047,2047,741,740,739,739,739,738,738,738,737,737,737,737,736,736,735,735,735,735,734,734,733,732,732,731,730,730,729,729,728,728,727,727,727,727,726,725,725,723,2047,2047,2047,2047,2047,2047,2047,2047,2047,696,696,696,696,695,694,694,693,693,693,692,692,692,692,692,692,693,693,693,693,693,693,694,694,2047,2047,2047,2047,2047,2047,2047,692,692,692,692,692,692,692,692,691,691,691,691,691,690,689,683,682,682,682,682,681,681,680,680,679,679,679,679,679,679,679,678,678,676,675,675,674,670,670,670,670,670,670,670,670,670,670,670,670,670,670,670,670,670,670,670,670,670,670,669,669,669,668,668,667,666,666,665,664,663,662,662,661,660,658,658,657,655,654,654,654,654,654,655,656,657,658,659,659,659,659,659,658,658,658,657,657,657,657,657,657,656,656,656,657,657,657,658,658,659,659,659,660,660,661,661,661,661,662,662,662,662,663,663,663,663,664,664,665,665,665,666,666,667,667,667,668,669,669,670,672,673,673,674,674,676,676,677,678,681,682,682,682,685,686,688,689,691,693,694,694,1040,1040,1040,1041,1040,1040,1040,1040,1040,1040,1040,1040,1040,1040,1040,1040,1039,1039,1039,1038,1039,1039,1039,1039,1038,1038,1038,1038,1038,1038,1038,1037,1037,1037,1037,1037,1037,1037,1038,1037,1037,1037,1037,1037,1036,1035,1035,1035,1035,1035,1035,1035,1035,1035,1036,1036,1035,1035,1035,1034,1034,1034,1034,1034,1035,1035,1035,1035,1034,1035,1034,1034,1034,1033,1033,1033,1032,2047,2047,2047,978,978,978,978,978,977,977,977,977,977,977,976,977,976,977,977,977,977,977,977,977,976,976,976,976,976,976,974,973,2047,2047,2047,2047,2047,2047,2047,2047,2047,2047,2047,2047,2047,2047,2047,2047,2047,2047,2047,2047,2047,2047,2047,2047,2047,2047,2047,2047,2047,2047,2047,2047,2047,2047,2047,2047,2047,2047,2047,2047,2047,2047,2047,2047,2047,2047,2047,2047,2047,2047,558,557,557,556,556,556,549,549,547,546,545,545,544,544,543,543,542,541,540,539,538,537,536,535,534,532,532,531,530,530,511,511,510,509,509,508,507,506,504,503,501,500,499,497,497,496,496,2047,2047,2047,2047,2047,2047,2047,2047,2047,2047,431,430,429,428,428,427,425,424,423,420,419,418,417,417,416,414,414,413,413,413,412,412,411,411,452,451,450,449,448,445,443,440,440,439,439,438,438,436,434,433,432,432,432,432,432,432,431,432,432,432,433,433,433,433,435,435,401,400,2047,399,399,398,399,2047,2047,2047,2047,2047,2047,2047,2047,2047,2047,2047,2047,391,391,391,391,392,392,393,393,394,394,393,392,391,389,388,387,387,385,384,383,381,380,380,378,377,375,373,371,371,370,370,369,368,368,365,364,363,362,362,362,361,360,360,358,358,358,357,356,356,2047,2047,2047,2047,2047,2047,344,344,343,342,341,340,340,339,339,2047,2047,2047
2047,2047,2047,2047,2047,2047,2047,2047,2047,2047,2047,2047,2047,2047,2047,2047,2047,2047,2047,2047,2047,2047,2047,2047,2047,2047,2047,2047,2047,2047,2047,2047,2047,2047,2047,2047,2047,2047,2047,739,739,738,738,737,736,737,736,737,736,736,736,735,735,735,735,734,734,733,732,731,731,731,730,729,729,728,728,727,727,727,726,726,726,725,725,723,723,2047,2047,2047,2047,2047,2047,2047,2047,2047,2047,2047,696,695,695,695,695,694,694,695,694,693,694,694,694,694,694,694,694,694,694,694,694,694,2047,2047,2047,2047,2047,2047,2047,693,692,692,692,693,692,692,691,691,690,690,690,689,683,683,682,682,682,682,681,681,680,680,680,680,679,680,679,679,679,678,678,676,675,674,674,671,670,670,671,670,670,671,670,671,671,670,670,670,670,670,670,670,670,670,670,670,670,669,669,669,668,668,667,666,666,665,664,663,662,662,660,659,658,657,657,655,654,654,654,654,655,655,656,657,658,659,660,659,659,659,659,658,658,657,657,657,657,656,656,656,656,656,656,657,657,658,658,659,659,659,660,661,661,661,661,661,661,661,662,662,663,663,663,663,664,664,664,665,665,666,666,666,666,667,668,668,669,670,672,673,673,674,674,675,676,677,678,680,681,681,682,685,686,689,689,691,693,694,694,1038,1040,1040,1040,1040,1040,1040,1040,1040,1040,1040,1040,1040,1039,1039,1039,1039,1039,1038,1038,1039,1039,1038,1039,1038,1038,1038,1038,1038,1038,1038,1037,1037,1037,1038,1037,1037,1037,1038,1037,1037,1037,1037,1037,1036,1036,1035,1035,1035,1035,1035,1035,1035,1035,1036,1036,1036,1035,1035,1035,1034,1034,1034,1034,1034,1035,1035,1035,1034,1035,1034,1034,1033,1033,1032,2047,2047,2047,2047,2047,979,978,978,978,978,977,977,977,977,977,976,977,977,977,977,977,977,977,977,977,976,976,976,976,976,975,974,973,973,2047,2047,2047,2047,2047,2047,2047,2047,2047,2047,2047,2047,2047,2047,2047,2047,2047,2047,2047,2047,2047,2047,2047,2047,2047,2047,2047,2047,2047,2047,2047,2047,2047,2047,2047,2047,2047,2047,2047,2047,2047,2047,2047,2047,2047,2047,2047,2047,2047,557,557,556,556,556,553,550,549,548,546,545,544,544,544,544,543,543,541,540,539,538,538,537,536,535,534,533,532,532,532,532,2047,510,509,509,508,507,506,505,503,502,501,499,498,496,495,495,494,493,492,2047,2047,2047,2047,2047,2047,2047,2047,431,430,429,428,428,427,425,424,423,422,420,419,418,417,416,415,414,413,412,412,412,411,411,410,451,450,450,449,449,446,444,440,440,439,439,438,437,435,433,433,432,432,432,431,431,431,431,431,431,431,432,433,433,433,435,2047,2047,2047,2047,2047,2047,2047,2047,2047,2047,2047,2047,2047,2047,2047,2047,2047,2047,2047,2047,392,391,391,391,391,393,393,393,395,395,393,392,391,390,389,388,387,386,385,383,381,380,380,379,378,374,373,371,371,370,369,368,367,366,365,364,363,363,363,362,361,360,359,358,357,357,357,356,2047,2047,2047,2047,2047,344,344,344,344,343,342,341,340,340,340,339,2047,2047,2047
2047,2047,2047,2047,2047,2047,2047,2047,2047,2047,2047,2047,2047,2047,2047,2047,2047,2047,2047,2047,2047,2047,2047,2047,2047,2047,2047,2047,2047,2047,2047,2047,2047,2047,2047,2047,2047,2047,739,739,738,737,737,737,736,736,736,736,736,735,735,735,735,734,734,734,733,732,731,731,731,730,730,729,729,728,728,727,727,727,726,726,726,725,725,724,723,2047,2047,2047,2047,2047,2047,2047,2047,2047,2047,697,697,696,696,695,696,695,695,696,695,695,695,695,695,695,694,694,694,694,694,694,694,2047,2047,2047,2047,2047,2047,2047,2047,695,695,694,694,694,693,692,691,690,689,689,688,686,684,683,682,682,682,682,682,681,681,680,680,680,680,680,679,679,679,679,678,677,675,675,674,672,672,671,671,670,671,670,670,670,670,670,670,670,670,670,670,670,670,670,670,670,670,669,669,669,668,668,667,667,666,665,664,663,662,662,660,659,658,657,656,655,654,654,654,654,655,655,656,657,659,660,660,660,660,659,659,658,658,657,657,657,657,657,656,656,657,657,657,657,657,658,659,659,660,660,661,661,661,661,661,661,662,662,662,662,663,663,663,663,664,664,665,665,665,666,666,666,666,667,667,668,669,670,671,672,673,674,674,675,676,677,678,679,681,681,682,683,685,688,689,691,692,694,694,1038,1040,1040,1041,1040,1040,1040,1040,1040,1040,1039,1039,1040,1039,1039,1039,1039,1039,1039,1039,1039,1039,1038,1038,1038,1038,1038,1038,1038,1038,1038,1038,1038,1038,1038,1037,1037,1037,1037,1037,1037,1037,1037,1037,1036,1036,1036,1036,1035,1036,1036,1035,1036,1036,1036,1036,1036,1036,1036,1035,1035,1034,1034,1034,1035,1035,1034,1034,1034,1034,1034,1034,1033,1033,2047,2047,2047,2047,2047,979,979,978,978,978,978,977,977,977,977,977,976,976,977,977,977,977,976,976,977,976,976,976,976,976,976,975,974,973,973,2047,2047,2047,2047,2047,2047,2047,2047,2047,2047,2047,2047,2047,2047,2047,2047,2047,2047,2047,2047,2047,2047,2047,2047,2047,2047,2047,2047,2047,2047,2047,2047,2047,2047,2047,2047,2047,2047,2047,2047,2047,2047,2047,2047,2047,2047,2047,2047,2047,557,556,556,555,555,550,549,548,547,546,545,544,544,544,544,543,542,541,540,539,538,537,536,535,535,533,533,532,532,2047,2047,2047,509,508,508,508,507,506,504,503,501,500,499,497,496,495,495,494,493,492,2047,2047,2047,2047,2047,2047,2047,2047,2047,2047,428,428,427,427,425,424,423,422,421,420,419,418,417,415,414,413,412,412,412,411,411,410,451,409,408,450,449,447,447,440,440,439,438,438,436,435,434,433,432,432,432,431,431,431,431,431,430,431,431,432,432,432,2047,2047,2047,2047,2047,2047,2047,2047,2047,2047,2047,2047,2047,2047,2047,2047,2047,2047,2047,2047,2047,391,391,391,391,391,392,393,393,395,394,393,392,391,390,389,388,387,386,385,383,382,381,380,379,378,375,374,372,371,370,369,368,367,366,365,364,364,363,363,362,361,360,359,358,357,357,357,356,356,2047,347,2047,344,344,344,344,344,343,342,341,341,340,340,340,2047,2047,2047
2047,2047,2047,2047,2047,2047,2047,2047,2047,2047,2047,2047,2047,2047,2047,2047,2047,2047,2047,2047,2047,2047,2047,2047,2047,2047,2047,2047,2047,2047,2047,2047,2047,2047,2047,2047,2047,739,738,738,738,737,736,736,736,735,735,735,735,735,735,735,735,734,734,734,733,732,731,731,731,730,730,729,729,728,727,727,727,727,726,726,726,725,725,724,723,723,723,723,723,723,722,2047,722,722,720,720,696,696,696,696,696,695,696,697,696,696,697,696,695,695,695,695,695,694,694,694,694,2047,2047,2047,2047,2047,2047,2047,2047,2047,697,695,695,695,693,692,691,689,688,687,686,685,683,683,683,682,682,682,682,682,681,681,681,681,681,680,680,679,679,679,678,676,675,675,674,672,671,671,671,670,670,670,670,670,670,670,670,670,670,670,670,670,670,670,670,670,670,669,669,669,668,668,667,667,666,665,665,664,663,662,660,658,657,656,656,655,654,654,654,654,655,655,656,658,658,660,661,660,660,659,659,658,658,657,657,657,657,656,656,656,657,657,657,657,658,658,658,659,659,660,661,661,661,661,661,661,662,662,662,662,662,662,663,663,664,664,665,665,665,666,666,666,666,667,668,668,669,670,671,672,673,673,674,675,675,677,678,679,680,681,682,683,684,688,689,691,692,693,694,694,1040,1040,1041,1040,1040,1040,1040,1040,1039,1039,1039,1039,1039,1039,1039,1039,1038,1038,1038,1038,1038,1038,1038,1038,1038,1038,1038,1038,1038,1038,1038,1038,1038,1037,1037,1037,1037,1037,1037,1037,1037,1037,1037,1036,1036,1036,1036,1036,1036,1036,1035,1036,1036,1036,1036,1036,1036,1036,1035,1035,1034,1034,1035,1035,1035,1034,1034,1034,1034,1034,1034,1033,1033,2047,2047,2047,2047,2047,979,978,978,978,978,978,977,977,977,977,977,976,976,976,976,977,976,976,976,976,976,976,976,976,976,975,974,974,973,973,2047,2047,2047,2047,2047,2047,2047,2047,2047,2047,2047,2047,2047,2047,2047,2047,2047,2047,2047,2047,2047,2047,2047,2047,2047,2047,2047,2047,2047,2047,2047,2047,2047,2047,2047,2047,2047,2047,2047,2047,2047,2047,2047,2047,2047,2047,2047,2047,2047,557,556,555,553,550,549,548,548,547,546,545,544,544,544,544,543,542,541,540,539,537,537,536,535,534,533,532,532,531,2047,2047,2047,508,508,508,507,506,505,504,502,501,500,499,498,496,495,495,494,493,492,491,2047,2047,2047,2047,2047,2047,2047,2047,2047,2047,428,427,426,425,424,423,423,422,422,421,419,417,416,415,414,412,412,412,411,410,409,409,408,408,407,407,447,447,406,439,439,408,438,435,434,433,433,432,432,431,431,431,431,430,430,430,430,430,431,431,432,432,2047,2047,2047,2047,2047,2047,2047,2047,2047,2047,2047,2047,2047,2047,2047,2047,2047,2047,2047,2047,2047,391,391,391,391,391,393,392,393,393,393,392,391,390,389,388,387,386,385,384,382,381,380,379,376,375,374,372,371,370,369,368,367,366,364,364,363,362,363,362,360,360,359,358,357,357,356,355,355,347,347,345,344,344,344,344,343,342,342,342,342,342,341,340,2047,2047,2047
2047,2047,2047,2047,2047,2047,2047,2047,2047,2047,2047,2047,2047,2047,2047,2047,2047,2047,2047,2047,2047,2047,2047,2047,2047,2047,2047,2047,2047,2047,2047,2047,2047,2047,2047,2047,2047,738,737,737,737,736,736,735,735,735,735,734,735,735,734,734,734,734,733,733,732,731,731,731,730,730,729,728,728,727,727,726,726,726,726,726,726,726,726,726,726,725,724,723,722,722,721,721,720,721,720,720,695,695,695,696,696,696,697,698,697,698,697,697,697,696,696,695,695,694,694,694,2047,2047,2047,2047,2047,2047,2047,2047,2047,2047,2047,695,694,694,693,691,689,687,687,686,684,684,683,683,682,683,682,682,682,682,682,682,682,682,680,680,679,679,679,678,677,675,675,674,672,671,670,670,670,670,670,670,670,670,670,670,670,670,670,670,670,670,670,670,670,670,669,669,669,669,668,668,667,666,666,665,665,663,662,661,658,657,656,655,655,654,654,654,654,654,655,655,656,657,661,661,661,661,660,659,659,658,657,657,656,656,656,656,657,657,657,657,657,658,659,659,659,660,660,661,661,661,661,662,661,661,662,662,662,662,662,662,663,663,663,664,664,664,665,665,665,666,666,667,668,669,669,670,670,671,672,673,674,675,676,677,677,678,680,681,682,683,683,687,688,690,692,693,694,694,1041,1041,1041,1041,1040,1040,1040,1040,1040,1040,1039,1039,1039,1038,1038,1038,1038,1037,1037,1038,1038,1039,1039,1038,1039,1038,1038,1038,1038,1038,1038,1038,1038,1038,1038,1037,1037,1037,1037,1037,1037,1036,1036,1035,1035,1035,1035,1035,1035,1036,1036,1036,1036,1036,1036,1036,1035,1036,1035,1035,1035,1034,1035,1034,1034,1034,1034,1034,1034,1034,1033,1033,2047,2047,2047,2047,2047,2047,979,979,978,978,978,978,978,977,977,977,977,977,976,976,976,976,976,976,976,976,976,976,976,976,976,976,976,2047,2047,2047,2047,2047,2047,2047,2047,2047,2047,2047,2047,2047,2047,2047,2047,2047,2047,2047,2047,2047,2047,2047,2047,2047,2047,2047,2047,2047,2047,2047,2047,2047,2047,2047,2047,2047,2047,2047,2047,2047,2047,2047,2047,2047,2047,2047,2047,2047,2047,2047,557,557,557,555,554,553,550,549,547,546,546,545,545,544,544,543,543,542,541,540,538,536,536,535,534,533,533,532,532,2047,2047,2047,509,509,509,508,506,505,503,502,501,500,499,498,496,495,494,493,493,492,492,2047,2047,2047,2047,2047,2047,2047,2047,2047,2047,2047,2047,2047,425,424,423,422,421,420,419,419,418,417,416,416,415,415,414,414,414,415,412,409,409,408,407,405,405,406,407,407,407,407,407,435,435,434,433,431,431,431,429,429,428,429,430,429,430,430,431,431,2047,2047,2047,2047,2047,2047,2047,2047,2047,2047,2047,2047,2047,2047,2047,2047,2047,2047,2047,393,392,392,391,391,392,395,398,398,398,398,396,396,394,392,389,389,388,387,386,386,384,382,381,380,379,379,379,374,372,371,371,369,368,368,367,365,365,364,364,363,363,360,359,359,356,356,354,354,353,352,350,348,347,346,346,344,345,344,343,343,343,343,343,342,342,341,2047,2047,2047
2047,2047,2047,2047,2047,2047,2047,2047,2047,2047,2047,2047,2047,2047,2047,2047,2047,2047,2047,2047,2047,2047,2047,2047,2047,2047,2047,2047,2047,2047,2047,2047,2047,2047,2047,2047,735,735,737,737,736,735,735,735,734,734,734,733,734,734,734,734,734,733,733,732,732,731,731,730,730,729,728,727,727,727,727,726,726,726,726,726,726,726,726,726,726,726,725,724,723,722,721,721,721,721,721,721,721,696,696,697,697,697,698,698,698,698,698,697,698,697,697,696,696,695,695,694,2047,2047,2047,2047,2047,2047,2047,2047,2047,2047,2047,695,694,694,690,688,687,686,686,685,684,684,683,683,683,683,683,682,682,682,682,682,682,682,682,682,680,679,679,678,677,675,675,674,673,671,670,670,670,670,670,670,670,670,671,671,671,671,671,670,670,670,670,670,670,670,670,669,669,669,668,668,667,666,666,665,665,664,662,659,658,656,655,655,655,654,654,654,654,655,655,656,658,660,661,661,661,661,660,659,659,658,657,657,656,656,656,656,657,657,657,657,658,658,659,659,659,660,660,661,661,661,661,661,661,661,662,662,662,662,662,662,663,663,663,664,664,664,665,665,665,666,666,666,668,668,669,669,670,671,672,673,674,675,675,676,677,678,680,681,682,682,683,686,687,690,692,694,694,695,696,1041,1041,1041,1040,1040,1040,1039,1039,1039,1039,1039,1038,1038,1037,2047,2047,2047,2047,1037,1038,1038,1038,1038,1038,1038,1038,1038,1038,1038,1038,1038,1038,1038,1038,1038,1037,1037,1037,1037,1037,1037,1037,1035,1036,1035,1035,1035,1035,1035,1036,1036,1036,1036,1036,1036,1035,1036,1035,1035,1035,1034,1035,1034,1035,1034,1034,1035,1034,1034,1033,2047,2047,2047,2047,2047,2047,2047,979,978,978,978,978,978,978,977,977,977,977,977,976,976,976,976,976,976,976,976,976,976,976,976,975,976,976,2047,2047,2047,2047,2047,2047,2047,2047,2047,2047,2047,2047,2047,2047,2047,2047,2047,2047,2047,2047,2047,2047,2047,2047,2047,2047,2047,2047,2047,2047,2047,2047,2047,2047,2047,2047,2047,2047,2047,2047,2047,2047,2047,2047,2047,2047,2047,2047,2047,2047,557,556,557,556,554,553,551,550,548,547,546,546,545,545,544,544,543,542,541,540,539,537,536,536,535,533,533,532,531,531,2047,2047,2047,509,509,508,507,506,504,503,501,501,500,499,497,496,495,493,493,492,492,491,491,2047,2047,2047,2047,2047,2047,2047,2047,2047,2047,2047,2047,2047,424,423,422,421,421,420,419,418,417,416,416,416,416,415,415,415,415,412,412,410,409,408,406,406,406,406,407,406,406,405,405,433,433,432,431,431,430,428,428,428,428,428,428,430,430,431,431,2047,2047,2047,2047,2047,2047,2047,2047,2047,2047,2047,2047,2047,2047,2047,2047,2047,2047,2047,393,392,392,391,391,391,397,399,399,399,399,398,397,396,394,390,389,388,388,387,387,386,384,382,380,380,379,379,375,373,372,372,370,369,368,367,367,365,365,364,363,363,362,361,359,356,355,353,353,352,351,350,348,347,346,346,345,344,345,344,344,343,343,343,343,343,342,2047,2047,2047
2047,2047,2047,2047,2047,2047,2047,2047,2047,2047,2047,2047,2047,2047,2047,2047,2047,2047,2047,2047,2047,2047,2047,2047,2047,2047,2047,2047,2047,2047,2047,2047,2047,2047,2047,2047,2047,737,737,737,736,735,735,734,734,734,733,732,733,734,734,734,733,733,732,732,732,731,730,730,730,729,728,727,727,727,726,726,725,726,726,725,725,726,726,726,726,725,724,723,723,722,721,721,721,721,721,721,719,719,697,697,698,698,698,699,698,699,698,698,698,698,698,697,696,696,696,2047,2047,2047,2047,2047,2047,2047,2047,2047,2047,2047,2047,695,694,694,690,688,687,686,686,685,684,684,683,683,683,683,683,683,682,682,682,683,683,683,683,682,682,679,679,678,677,676,674,673,673,671,670,670,670,670,670,670,670,671,671,671,671,671,671,671,671,670,670,670,670,670,670,669,669,669,669,668,667,666,666,665,665,664,662,659,658,657,655,655,655,654,654,654,655,655,656,657,660,661,662,662,662,661,661,660,659,658,657,657,656,656,656,656,657,657,657,658,658,658,659,659,660,660,660,661,661,661,661,661,661,661,661,662,662,662,662,662,663,663,663,664,664,664,665,665,665,666,666,666,668,669,669,670,670,671,672,673,674,675,675,676,677,678,679,680,681,682,683,686,687,690,692,694,694,695,696,1041,1041,1041,1040,1040,1040,1039,1039,1039,1039,1038,1038,2047,2047,2047,2047,2047,2047,2047,1037,1037,1038,1038,1038,1038,1038,1038,1038,1038,1038,1038,1038,1038,1038,1037,1037,1037,1037,1037,1037,1036,1037,1035,1035,1036,1035,1035,1036,1035,1035,1035,1036,1036,1035,1035,1035,1035,1035,1035,1035,1035,1035,1035,1035,1034,1035,1034,1034,1033,2047,2047,2047,2047,2047,2047,2047,980,979,978,978,978,978,978,977,977,977,977,977,977,976,976,976,976,976,976,976,975,976,976,976,975,974,975,2047,2047,2047,2047,2047,2047,2047,2047,2047,2047,2047,2047,2047,2047,2047,2047,2047,2047,2047,2047,2047,2047,2047,2047,2047,2047,2047,2047,2047,2047,2047,2047,2047,2047,2047,2047,2047,2047,2047,2047,2047,2047,2047,2047,2047,2047,2047,2047,2047,2047,557,557,556,556,555,554,553,551,549,548,547,546,546,545,545,544,543,543,542,541,540,538,537,536,535,534,533,532,532,530,529,2047,2047,2047,508,508,507,507,505,504,502,501,500,500,499,497,496,495,493,493,492,492,491,2047,2047,2047,2047,2047,2047,2047,2047,2047,2047,2047,2047,2047,2047,423,422,422,422,421,420,420,419,418,417,418,417,417,416,415,415,414,414,412,410,409,408,408,407,407,406,406,406,405,405,405,405,431,431,431,429,428,428,428,427,427,428,427,428,428,430,431,2047,2047,2047,2047,2047,2047,2047,2047,2047,2047,2047,2047,2047,2047,2047,2047,2047,2047,392,392,392,392,391,392,392,399,399,400,400,400,399,398,396,394,392,391,389,388,388,387,387,386,384,381,380,379,377,375,374,373,373,371,369,368,367,365,365,364,364,363,362,361,360,359,357,356,354,353,352,351,350,348,347,347,346,346,345,345,344,344,344,344,344,343,343,342,2047,2047,2047
2047,2047,2047,2047,2047,2047,2047,2047,2047,2047,2047,2047,2047,2047,2047,2047,2047,2047,2047,2047,2047,2047,2047,2047,2047,2047,2047,2047,2047,2047,2047,2047,2047,2047,2047,2047,2047,735,735,735,734,735,735,734,734,733,733,732,733,733,733,733,733,732,732,732,731,731,730,730,730,729,728,727,727,727,726,726,725,725,725,725,725,725,726,726,725,725,722,721,721,721,721,720,720,721,720,720,719,719,698,698,698,698,699,699,699,699,699,698,699,698,698,698,697,696,696,694,2047,2047,2047,2047,2047,2047,2047,2047,2047,2047,695,695,694,693,688,687,687,686,686,685,685,684,683,683,683,683,683,683,683,683,683,683,683,683,683,682,682,682,681,678,678,675,674,673,672,671,670,670,670,670,670,671,671,671,672,672,672,672,673,671,671,670,670,670,670,670,670,669,669,669,669,668,667,666,666,665,665,664,661,659,658,656,655,655,655,655,654,654,654,655,655,656,660,661,662,662,662,661,661,660,660,658,657,656,656,656,656,656,657,657,657,658,658,659,659,659,660,660,660,661,661,661,661,661,661,661,661,661,662,661,662,662,663,663,663,664,664,664,665,665,665,666,666,667,668,669,669,670,671,671,672,673,674,674,675,676,678,678,680,681,681,682,683,686,686,689,692,694,694,694,696,1041,1042,1041,1041,1040,1040,1039,1038,1038,1038,1038,1037,2047,2047,2047,2047,2047,2047,2047,1036,1036,1037,1037,1038,1038,1038,1038,1038,1038,1038,1038,1038,1038,1038,1037,1037,1037,1037,1037,1037,1037,1037,1035,1036,1036,1036,1036,1036,1036,1036,1036,1036,1036,1035,1035,1035,1035,1035,1035,1035,1035,1035,1034,1035,1034,1034,1034,1034,2047,2047,2047,2047,2047,2047,2047,2047,979,978,978,978,978,977,978,978,977,977,977,977,977,976,976,976,976,976,976,976,976,976,976,976,975,975,976,2047,2047,2047,2047,2047,2047,2047,2047,2047,2047,2047,2047,2047,2047,2047,2047,2047,2047,2047,2047,2047,2047,2047,2047,2047,2047,2047,2047,2047,2047,2047,2047,2047,2047,2047,2047,2047,2047,2047,2047,2047,2047,2047,2047,2047,2047,2047,2047,2047,2047,557,557,556,555,554,553,552,550,549,548,547,546,545,545,545,544,543,543,542,540,539,538,537,536,535,534,533,532,532,530,529,2047,2047,2047,508,508,507,506,505,503,502,501,500,500,499,497,496,495,494,493,493,493,491,492,2047,2047,2047,2047,2047,2047,2047,2047,2047,2047,2047,2047,2047,2047,423,422,422,421,421,420,419,418,417,417,417,417,416,416,416,415,415,413,411,410,409,409,407,407,407,406,405,405,404,404,404,429,429,429,427,427,427,427,426,426,427,427,427,428,429,430,2047,2047,2047,2047,2047,2047,2047,2047,2047,2047,2047,2047,2047,2047,2047,2047,2047,2047,2047,392,392,392,391,390,2047,2047,2047,401,401,401,403,397,397,397,391,391,389,388,388,387,386,386,385,383,381,379,377,376,374,374,373,371,369,368,367,366,365,365,364,363,362,361,360,359,357,356,356,353,352,351,349,349,347,347,346,346,345,345,344,344,344,344,344,343,343,342,2047,2047,2047
2047,2047,2047,2047,2047,2047,2047,2047,2047,2047,2047,2047,2047,2047,2047,2047,2047,2047,2047,2047,2047,2047,2047,2047,2047,2047,2047,2047,2047,2047,2047,2047,2047,2047,2047,2047,2047,735,735,735,734,734,734,734,733,733,733,732,733,733,732,732,732,732,732,732,731,731,730,730,730,729,728,727,727,726,726,726,725,725,725,724,724,725,725,726,726,726,721,721,721,721,721,720,720,721,720,720,719,718,718,718,699,699,699,699,699,699,699,699,699,699,699,698,698,697,697,697,2047,2047,2047,2047,2047,2047,2047,2047,2047,2047,696,696,694,688,688,687,687,686,686,686,685,685,684,684,683,683,683,683,683,683,683,683,683,683,683,682,682,682,681,678,677,675,674,673,673,671,671,671,670,670,670,671,671,672,672,673,672,672,672,672,671,671,671,671,671,670,670,670,669,669,669,668,667,666,666,665,665,664,661,659,658,656,655,655,655,655,655,655,655,655,656,657,660,662,663,662,662,662,661,660,660,659,657,656,656,656,656,657,657,657,658,658,658,659,659,659,660,660,661,661,661,661,661,661,661,661,661,661,661,661,661,662,662,663,663,664,664,664,665,665,665,666,666,666,668,669,669,670,671,671,672,673,673,674,675,676,677,678,679,680,681,682,685,686,687,688,690,694,694,695,697,1041,1041,1041,1041,1040,1040,1039,1038,1038,1037,2047,2047,2047,2047,2047,2047,2047,2047,2047,2047,1036,1036,1037,1037,1037,1037,1038,1038,1038,1038,1038,1038,1037,1037,1037,1037,1037,1037,1037,1037,1036,1036,1035,1035,1036,1036,1036,1036,1036,1036,1036,1036,1036,1035,1035,1035,1035,1035,1035,1035,1035,1035,1035,1035,1035,1035,1034,2047,2047,2047,2047,2047,2047,2047,2047,979,979,978,978,978,977,977,977,977,977,977,977,977,977,976,976,976,976,976,976,976,976,976,976,976,976,975,976,2047,2047,2047,2047,2047,2047,2047,2047,2047,2047,2047,2047,2047,2047,2047,2047,2047,2047,2047,2047,2047,2047,2047,2047,2047,2047,2047,2047,2047,2047,2047,2047,2047,2047,2047,2047,2047,2047,2047,2047,2047,2047,2047,2047,2047,2047,2047,2047,2047,2047,2047,556,554,554,554,553,552,550,548,547,546,545,545,545,544,544,543,542,541,540,539,538,537,536,535,534,533,532,531,530,530,2047,2047,2047,508,508,506,506,504,503,502,501,500,499,498,497,496,496,495,493,493,492,491,492,492,2047,2047,2047,2047,2047,2047,2047,2047,2047,2047,2047,2047,2047,2047,2047,422,421,421,420,420,419,418,418,417,417,416,416,415,415,415,413,412,411,409,409,408,408,407,406,406,405,405,404,404,403,403,428,428,428,427,427,426,426,426,426,427,427,428,429,2047,2047,2047,2047,2047,2047,2047,2047,2047,2047,2047,2047,2047,2047,2047,2047,2047,2047,2047,2047,2047,392,392,391,2047,2047,2047,402,402,403,403,400,398,398,398,388,388,388,388,387,386,386,385,383,381,379,377,376,375,375,375,374,370,368,367,366,366,366,365,364,363,362,360,359,356,356,356,353,352,351,350,349,347,347,347,347,346,346,345,344,344,344,344,344,343,343,2047,2047,2047
2047,2047,2047,2047,2047,2047,2047,2047,2047,2047,2047,2047,2047,2047,2047,2047,2047,2047,2047,2047,2047,2047,2047,2047,2047,2047,2047,2047,2047,2047,2047,2047,2047,2047,2047,2047,2047,735,734,735,734,734,734,733,733,732,732,732,732,732,732,732,732,731,731,731,731,731,730,730,729,728,727,727,726,726,726,725,725,725,724,724,724,724,724,725,725,723,722,722,722,721,721,721,721,721,720,720,719,719,718,718,718,699,699,699,699,699,699,699,699,699,699,698,698,697,698,698,2047,2047,2047,2047,2047,2047,2047,2047,695,694,694,695,691,688,688,687,687,686,686,686,685,686,684,684,684,684,684,684,684,683,684,683,683,683,683,682,682,681,681,678,676,675,674,673,673,672,671,671,671,671,671,672,672,672,673,673,673,672,672,672,672,671,671,671,671,671,671,670,670,670,669,668,667,666,666,665,664,663,661,659,658,656,655,655,655,655,655,654,655,655,656,657,661,662,663,663,663,662,662,661,660,659,658,657,656,656,657,657,657,657,658,658,659,659,659,659,660,660,660,661,661,661,661,661,661,661,661,661,661,661,661,662,662,663,663,664,664,664,665,665,665,666,666,666,668,669,669,670,671,671,672,673,673,674,675,676,677,678,678,679,681,682,685,686,686,688,691,694,693,693,697,1041,1042,1041,1041,1040,1041,1039,1038,2047,2047,2047,2047,2047,2047,2047,2047,2047,2047,2047,2047,2047,2047,1035,1036,1036,1037,1037,1037,1038,1038,1038,1038,1038,1037,1037,1037,1037,1036,1037,1037,1036,1036,1035,1036,1036,1036,1036,1036,1036,1036,1036,1036,1036,1035,1035,1035,1035,1034,1035,1035,1035,1035,1035,1035,1035,1035,2047,2047,2047,2047,2047,2047,2047,2047,2047,979,978,978,977,977,977,977,977,977,977,977,977,976,977,977,977,976,976,976,976,976,976,976,976,976,975,975,2047,2047,2047,2047,2047,2047,2047,2047,2047,2047,2047,2047,2047,2047,2047,2047,2047,2047,2047,2047,2047,2047,2047,2047,2047,2047,2047,2047,2047,2047,2047,2047,2047,2047,2047,2047,2047,2047,2047,2047,2047,2047,2047,2047,2047,2047,2047,2047,2047,2047,2047,554,554,554,554,554,553,552,550,548,547,546,545,545,545,544,544,543,542,541,539,539,538,537,536,535,534,532,531,531,530,2047,2047,2047,2047,2047,506,506,505,503,502,501,501,500,499,498,497,496,496,495,494,493,492,490,490,489,489,488,2047,2047,2047,2047,2047,2047,2047,2047,2047,2047,2047,2047,2047,2047,422,421,420,420,419,419,418,418,417,416,416,416,415,415,413,412,411,410,409,408,408,407,407,406,406,405,404,404,403,403,427,426,427,426,426,426,425,426,426,426,426,427,427,2047,2047,2047,2047,2047,2047,2047,2047,2047,2047,2047,2047,2047,2047,2047,2047,2047,2047,2047,2047,2047,2047,2047,2047,2047,2047,2047,2047,403,403,2047,400,399,399,2047,2047,389,389,388,387,387,387,386,384,381,379,377,376,375,375,375,374,373,373,371,367,367,366,366,364,363,362,360,358,356,357,356,355,352,351,350,349,348,348,347,347,347,346,345,345,344,345,345,344,343,343,2047,2047,2047
2047,2047,2047,2047,2047,2047,2047,2047,2047,2047,2047,2047,2047,2047,2047,2047,2047,2047,2047,2047,2047,2047,2047,2047,2047,2047,2047,2047,2047,2047,2047,2047,2047,2047,2047,2047,735,734,733,734,733,731,731,731,731,731,731,731,731,731,731,731,731,730,730,730,730,730,730,729,729,728,727,727,726,725,725,724,723,723,723,723,723,723,723,723,723,722,722,720,721,721,721,720,720,720,720,720,719,718,717,716,716,716,699,699,699,699,699,699,699,698,698,698,698,697,698,698,698,695,695,694,694,2047,2047,691,691,690,690,690,689,688,687,687,687,687,686,686,686,686,685,685,684,685,685,685,684,683,684,684,683,683,683,682,681,681,678,676,675,674,673,673,672,671,671,671,671,671,671,671,672,672,672,672,673,673,673,672,672,672,672,672,671,671,671,670,670,669,669,668,667,666,666,665,665,663,660,658,657,656,655,655,655,654,654,654,654,654,655,657,662,662,663,662,662,662,661,661,660,659,658,657,657,657,657,658,658,658,659,659,659,659,660,659,660,660,661,661,661,661,661,661,661,661,661,661,662,662,662,662,663,663,663,664,664,664,665,664,665,665,666,666,666,668,668,669,670,671,672,673,673,674,674,675,676,677,677,678,679,680,681,685,686,688,689,691,691,691,691,2047,2047,2047,2047,2047,2047,2047,2047,2047,2047,2047,2047,2047,2047,2047,2047,2047,2047,2047,2047,1034,1034,1038,1038,1038,1038,1038,1038,1038,1038,1038,1038,1038,1037,1037,1037,1037,1037,1037,1037,1037,1037,1036,1036,1036,1036,1036,1036,1036,1036,1036,1035,1035,1035,1035,1036,1036,1036,1036,1035,1035,1035,1034,1035,2047,2047,2047,2047,2047,2047,2047,2047,979,980,979,979,979,978,978,978,978,977,977,977,977,976,976,976,976,976,976,976,976,976,976,976,975,976,975,975,2047,2047,2047,2047,2047,2047,2047,2047,2047,2047,2047,2047,2047,2047,2047,2047,2047,2047,2047,2047,2047,2047,2047,2047,2047,2047,2047,2047,2047,2047,2047,2047,2047,2047,2047,2047,2047,2047,2047,2047,2047,2047,2047,2047,2047,2047,2047,2047,2047,2047,2047,2047,2047,555,554,553,553,553,552,551,549,547,546,545,545,545,544,544,544,543,542,540,538,537,537,536,536,535,534,533,532,532,531,531,509,509,509,508,508,506,503,502,501,501,500,500,500,499,497,496,495,494,492,491,490,490,489,489,489,2047,2047,2047,2047,2047,2047,2047,2047,2047,2047,2047,2047,2047,2047,421,420,420,420,419,419,419,418,417,416,415,413,412,410,410,410,410,409,408,407,407,406,406,405,405,404,404,403,403,403,403,427,427,427,426,426,426,426,426,426,427,427,428,428,428,428,2047,2047,2047,397,397,396,395,395,394,394,393,393,392,391,2047,2047,2047,2047,2047,2047,2047,2047,2047,2047,404,403,2047,2047,2047,2047,2047,2047,2047,2047,2047,2047,2047,392,2047,384,384,383,383,2047,375,375,373,374,372,371,370,369,368,367,366,366,365,363,362,361,359,357,356,356,356,355,354,352,350,349,347,348,347,346,346,345,345,345,345,345,344,344,344,343,2047,2047,2047
2047,2047,2047,2047,2047,2047,2047,2047,2047,2047,2047,2047,2047,2047,2047,2047,2047,2047,2047,2047,2047,2047,2047,2047,2047,2047,2047,2047,2047,2047,2047,2047,2047,2047,2047,731,732,732,731,731,731,731,731,731,731,731,731,731,731,731,731,730,730,730,730,730,730,730,729,729,728,728,727,726,726,725,724,724,723,723,723,723,722,722,722,722,722,725,725,721,721,721,720,720,720,720,720,719,718,718,718,717,716,716,714,700,700,699,699,699,699,698,698,698,698,697,697,696,695,695,694,693,694,691,692,691,691,690,690,690,690,689,688,688,687,687,687,687,686,686,686,686,685,685,685,685,685,684,685,684,684,683,683,682,681,680,677,676,675,674,674,673,673,671,671,671,671,671,672,672,673,673,673,673,673,673,673,673,672,672,672,672,672,671,671,670,670,669,669,668,667,666,665,665,664,662,659,658,657,657,656,655,655,654,654,654,654,654,654,654,662,662,663,662,662,661,660,660,659,658,658,657,657,657,658,658,658,658,659,659,660,659,660,659,660,660,661,661,661,661,661,661,661,661,661,661,662,662,662,662,662,663,663,663,663,664,664,664,665,665,666,666,666,667,668,669,670,671,672,673,673,674,674,675,676,677,677,678,679,681,681,684,686,687,689,691,691,691,691,2047,2047,2047,2047,2047,2047,2047,2047,2047,2047,2047,2047,2047,2047,2047,2047,2047,2047,2047,1034,1034,1034,1037,1038,1038,1038,1038,1038,1038,1038,1038,1038,1038,1037,1037,1037,1037,1037,1037,1037,1037,1037,1036,1036,1036,1036,1036,1036,1036,1036,1036,1035,1035,1035,1035,1035,1036,1036,1036,1035,1035,1034,1034,2047,2047,2047,2047,2047,2047,2047,2047,2047,979,980,979,979,979,978,978,978,978,977,977,977,977,977,977,977,977,976,976,976,976,976,976,976,975,975,975,974,974,2047,2047,2047,2047,2047,2047,2047,2047,2047,2047,2047,2047,2047,2047,2047,2047,2047,2047,2047,2047,2047,2047,2047,2047,2047,2047,2047,2047,2047,2047,2047,2047,2047,2047,2047,2047,2047,2047,2047,2047,2047,2047,2047,2047,2047,2047,2047,2047,2047,2047,2047,556,555,554,553,553,552,551,550,548,546,545,545,545,545,544,544,544,543,541,539,538,537,536,536,535,535,534,533,532,531,530,530,509,509,508,508,507,505,502,501,501,500,500,500,499,498,496,495,495,494,492,491,491,490,489,489,489,489,2047,2047,2047,2047,2047,2047,2047,2047,2047,2047,2047,2047,2047,421,421,421,421,420,419,419,419,418,417,415,413,412,411,411,410,410,409,408,407,407,406,405,405,405,404,404,403,403,404,403,403,426,426,426,426,426,426,426,426,426,426,427,427,2047,2047,2047,2047,2047,2047,2047,2047,2047,2047,2047,2047,392,392,391,391,2047,2047,2047,2047,2047,2047,2047,2047,2047,2047,2047,2047,2047,2047,2047,2047,2047,2047,2047,2047,2047,2047,2047,2047,2047,387,2047,385,2047,2047,2047,374,373,374,372,372,371,369,369,368,366,366,365,363,362,361,359,357,356,356,356,355,354,352,351,349,348,348,348,347,347,346,346,345,345,345,344,344,344,344,2047,2047,2047
2047,2047,2047,2047,2047,2047,2047,2047,2047,2047,2047,2047,2047,2047,2047,2047,2047,2047,2047,2047,2047,2047,2047,2047,2047,2047,2047,2047,2047,2047,2047,2047,2047,2047,2047,732,732,732,731,731,731,731,731,731,731,731,731,731,731,731,731,730,730,730,730,730,730,729,728,728,728,727,727,727,726,725,724,724,723,723,722,722,722,722,722,722,722,725,725,722,722,721,720,720,720,720,719,719,718,718,717,717,716,715,714,714,699,699,699,699,699,698,698,697,697,696,696,695,695,694,694,693,693,692,692,691,691,690,690,691,690,689,689,689,688,688,688,687,687,686,686,686,686,686,686,686,686,685,685,685,684,683,682,681,680,678,676,675,675,674,674,673,673,672,672,672,672,672,672,672,673,673,673,673,673,673,673,673,673,673,672,672,672,671,671,671,670,670,669,668,667,666,665,665,664,661,659,658,657,657,656,655,655,654,654,654,654,654,654,654,662,663,663,662,661,661,660,659,658,658,658,657,657,657,658,658,658,658,659,659,660,660,660,660,660,660,661,661,661,661,661,661,661,661,661,661,661,661,662,662,662,663,662,663,663,664,664,664,664,665,665,665,666,667,667,668,669,671,672,673,673,674,674,674,676,676,677,678,680,681,681,683,685,687,689,691,691,691,691,2047,2047,2047,2047,2047,2047,2047,2047,2047,2047,2047,2047,2047,2047,2047,2047,2047,2047,2047,1033,1033,1033,1034,1034,1037,1037,1038,1038,1038,1038,1038,1038,1038,1037,1037,1037,1037,1037,1037,1037,1037,1037,1036,1036,1036,1036,1036,1036,1036,1036,1035,1035,1035,1035,1035,1035,1036,1035,1035,1035,1034,1034,1034,2047,2047,2047,2047,2047,2047,2047,2047,2047,979,980,980,979,979,978,978,978,978,977,977,977,977,977,977,977,977,977,976,976,976,976,976,976,976,975,975,975,2047,2047,2047,2047,2047,2047,2047,2047,2047,2047,2047,2047,2047,2047,2047,2047,2047,2047,2047,2047,2047,2047,2047,2047,2047,2047,2047,2047,2047,2047,2047,2047,2047,2047,2047,2047,2047,2047,2047,2047,2047,2047,2047,2047,2047,2047,2047,2047,2047,2047,2047,557,556,554,554,553,552,551,550,549,547,546,545,545,545,544,544,544,544,543,541,539,538,537,536,536,536,535,533,532,532,531,530,530,508,508,508,508,507,505,502,502,501,500,500,500,499,497,496,495,495,494,492,492,491,490,489,489,489,489,2047,2047,2047,2047,2047,2047,2047,2047,2047,2047,2047,2047,2047,2047,2047,422,421,421,420,420,419,419,418,416,414,412,411,411,411,410,410,409,408,407,406,405,405,404,404,404,404,404,404,403,403,403,427,426,426,426,426,426,426,427,427,428,429,2047,2047,2047,2047,2047,2047,2047,2047,2047,2047,2047,2047,2047,2047,2047,2047,2047,2047,2047,2047,2047,2047,2047,2047,2047,2047,2047,2047,405,2047,2047,2047,2047,2047,2047,395,395,392,392,392,392,387,387,385,2047,2047,2047,372,372,373,373,372,371,370,369,368,367,366,364,363,362,361,359,358,357,356,356,355,354,353,351,350,349,349,348,348,348,347,347,346,346,345,345,345,344,344,2047,2047,2047
