2047,2047,2047,2047,2047,2047,2047,2047,2047,2047,602,602,605,605,604,604,604,604,603,603,599,597,597,596,595,594,592,591,591,591,591,592,592,592,592,592,593,593,593,594,596,596,596,596,597,598,599,600,603,602,603,603,604,604,605,605,607,606,607,607,608,608,608,608,609,609,610,610,611,612,612,613,613,614,615,616,615,616,617,617,618,619,618,685,684,685,687,687,688,688,689,689,689,689,689,688,688,687,686,685,685,685,685,685,685,685,685,686,686,686,687,688,688,688,688,689,689,689,689,689,689,690,690,691,691,691,691,689,689,689,718,718,718,719,719,720,722,725,725,2047,1032,1032,1032,1032,1032,1032,1031,1032,1032,1032,1032,1032,1032,1032,1032,1033,1033,1033,2047,2047,2047,2047,2047,2047,2047,2047,2047,2047,2047,2047,2047,2047,2047,2047,2047,2047,2047,2047,2047,2047,2047,2047,2047,2047,2047,2047,2047,2047,2047,2047,2047,2047,2047,2047,2047,2047,2047,2047,2047,2047,683,683,2047,2047,677,675,674,673,672,670,669,668,668,667,667,665,664,664,664,663,662,662,662,661,661,660,660,660,660,658,658,657,657,657,657,657,656,656,656,656,656,656,656,656,656,656,656,656,656,656,656,656,656,656,656,656,656,656,656,656,656,641,641,640,640,640,640,640,640,640,639,640,640,639,638,638,638,638,638,638,638,638,638,637,637,637,637,636,636,636,636,635,634,634,633,633,633,633,632,632,632,631,630,630,630,630,630,629,629,629,629,629,629,629,629,629,628,628,628,629,628,627,627,627,627,627,626,626,626,626,626,626,626,626,626,626,626,626,626,626,626,626,626,626,626,625,626,625,626,626,626,625,626,626,626,626,626,626,627,627,627,627,627,627,627,627,627,627,627,627,627,627,627,628,629,629,630,630,630,630,631,631,631,631,631,631,631,632,632,632,632,632,633,632,633,633,633,634,634,634,635,636,636,637,636,636,636,636,636,636,636,636,636,636,636,636,636,636,636,636,636,635,635,635,635,635,634,634,634,634,634,633,633,633,633,633,633,634,634,634,634,634,634,634,634,634,634,633,634,634,633,633,633,633,633,633,633,634,634,634,634,635,635,636,636,637,637,637,637,638,638,638,638,640,640,640,640,641,641,642,642,642,643,644,644,645,645,646,647,648,649,649,650,650,651,651,652,654,655,656,657,658,659,662,663,664,665,665,665,666,666,666,665,665,679,679,679,679,678,678,678,679,678,678,678,678,678,678,678,677,677,677,677,677,677,678,678,679,679,680,680,681,681,681,682,682,682,683,684,685,686,687,688,689,690,843,845,845,844,845,844,844,844,844,843,843,843,843,843,843,843,843,843,843,843,843,843,842,843,842,842,842,842,842,842,842,841,842,842,842,842,841,842,841,841,841,841,841,841,841,841,841,841,841,841,841,842,842,842,842,843,843,843,844,844,844,844,844,845,844,845,846,846,847,846,847,847,848,850,850,853,854,2047,2047,2047,2047,2047,2047,2047,2047
2047,2047,2047,2047,2047,2047,2047,2047,2047,2047,604,604,604,604,604,603,603,603,602,600,597,596,595,592,591,591,590,590,590,591,591,592,592,591,592,592,593,592,593,594,595,594,594,596,597,597,598,602,602,600,601,601,602,603,604,605,606,605,606,606,607,608,608,608,609,609,609,610,611,611,612,612,612,614,615,615,615,616,616,617,617,618,681,684,683,684,684,686,687,688,688,689,689,689,689,689,688,687,687,685,685,686,686,685,685,686,686,686,687,687,687,688,688,688,688,689,689,689,689,690,690,690,691,691,691,691,690,690,688,716,717,717,718,719,720,721,723,725,725,1032,1032,1032,1032,1032,1032,1032,1031,1032,1032,1032,1032,1032,1032,1032,1032,1032,1032,1032,2047,2047,2047,2047,2047,2047,2047,2047,2047,2047,2047,2047,2047,2047,2047,2047,2047,2047,2047,2047,2047,2047,2047,2047,2047,2047,2047,2047,2047,2047,2047,2047,2047,2047,2047,2047,2047,2047,2047,2047,2047,2047,682,682,681,680,679,676,673,672,672,670,669,668,668,666,666,665,665,664,663,663,662,661,661,661,661,661,660,660,659,657,657,657,657,657,657,656,656,656,656,656,656,656,656,656,656,656,656,656,656,656,655,656,656,655,656,656,656,656,656,656,656,641,641,641,640,640,640,640,639,639,640,640,640,639,638,638,638,638,638,638,637,637,637,637,637,636,636,636,636,635,635,635,634,634,633,633,632,633,632,632,631,631,630,630,630,629,629,629,629,629,629,629,629,628,628,628,628,628,628,628,628,627,627,627,626,626,626,626,626,626,626,626,626,626,626,626,626,626,626,626,626,626,626,626,626,625,625,625,625,625,625,625,625,625,626,626,626,626,626,626,626,626,626,626,626,626,626,627,627,626,627,627,627,628,628,629,629,630,630,630,630,630,631,630,630,631,631,631,631,631,631,631,632,632,632,632,633,633,634,633,634,635,635,636,635,635,635,635,636,636,635,635,635,636,636,636,636,635,636,636,635,635,635,635,635,635,634,634,634,634,634,633,633,633,633,633,633,634,634,634,634,634,634,634,633,634,633,633,633,633,633,633,633,633,633,633,633,633,633,634,634,634,634,635,635,636,636,637,637,637,637,637,638,639,639,640,640,640,641,641,641,641,642,644,644,644,645,646,647,648,648,649,649,650,650,651,652,653,654,656,657,658,659,661,663,664,665,665,665,666,666,666,665,665,679,679,679,679,679,678,679,678,678,678,678,678,678,678,677,677,677,677,677,677,677,677,678,679,679,679,680,681,681,681,681,682,682,683,683,684,685,686,687,688,689,842,845,845,844,844,844,844,844,843,843,843,842,842,842,842,842,842,842,842,842,842,842,842,842,842,842,842,842,842,841,841,841,841,841,841,841,841,841,841,841,841,841,841,841,841,841,841,841,841,841,841,841,841,841,842,843,843,843,843,844,843,843,843,844,844,845,845,846,846,846,846,846,846,849,849,853,853,2047,2047,2047,2047,2047,2047,2047,2047
2047,2047,2047,2047,2047,2047,2047,2047,2047,605,604,604,604,603,603,601,601,602,600,598,595,593,589,590,589,588,589,588,588,588,589,589,591,591,592,592,592,592,593,594,594,594,594,595,597,597,599,600,600,600,601,601,601,602,603,605,605,605,605,605,606,607,607,608,609,609,609,610,610,610,611,612,611,613,614,615,615,615,616,616,616,680,681,681,681,684,685,686,687,687,688,689,689,689,689,689,688,688,687,686,686,686,686,685,686,686,686,687,687,687,687,688,688,688,688,688,689,689,689,690,690,691,691,692,691,690,690,688,688,716,716,716,718,719,720,721,722,725,725,1032,1032,1032,1032,1032,1032,1032,1031,1032,1032,1032,1032,1032,1032,1032,1032,1032,1032,2047,2047,2047,2047,2047,2047,2047,2047,2047,2047,2047,2047,2047,2047,2047,2047,2047,2047,2047,2047,2047,2047,2047,2047,2047,2047,2047,2047,2047,2047,2047,2047,2047,2047,2047,2047,2047,2047,2047,2047,2047,2047,2047,682,681,680,680,679,676,673,672,671,669,669,668,667,666,666,665,664,664,662,662,662,661,661,661,661,660,660,659,658,657,657,657,657,656,656,656,656,656,656,656,655,655,656,655,655,656,656,655,656,656,656,656,656,656,656,656,656,656,656,656,656,641,641,641,640,640,640,639,639,639,638,638,640,638,638,638,638,638,638,637,637,637,637,637,636,636,636,635,636,635,635,635,634,634,633,633,632,633,632,632,631,631,630,630,630,629,629,629,629,629,629,628,628,628,628,628,628,627,627,628,627,626,626,626,626,626,626,626,625,626,625,625,625,625,625,626,625,626,625,625,625,625,625,625,625,625,625,625,625,625,625,625,625,625,625,625,625,625,625,626,625,626,626,626,626,626,626,626,626,626,626,626,627,628,628,628,629,629,630,630,630,630,630,630,630,631,631,631,630,630,630,631,631,631,631,631,632,633,633,633,634,634,634,635,634,635,635,635,635,635,635,635,635,635,636,635,635,635,635,635,635,634,634,634,634,634,634,634,634,633,633,633,633,633,632,633,633,633,633,634,634,634,634,633,633,633,633,633,633,633,633,633,633,633,633,633,633,633,633,633,634,634,634,634,634,635,635,636,636,637,637,637,638,638,639,639,639,640,641,641,641,641,641,643,643,644,645,646,646,647,648,649,649,649,650,650,652,653,654,655,657,659,659,661,663,664,665,665,665,665,665,665,665,665,665,678,679,679,679,678,678,678,678,678,678,678,678,677,677,677,676,677,677,677,677,677,678,678,679,679,679,680,680,681,681,681,681,682,683,683,685,686,686,688,689,689,842,842,843,843,843,843,843,843,843,843,843,842,842,842,842,842,842,842,842,842,842,842,842,842,842,841,841,841,841,841,841,841,841,841,841,841,841,841,840,841,841,841,840,840,840,841,840,840,841,841,842,841,842,841,842,842,842,843,843,843,843,842,843,842,844,843,843,845,845,843,843,846,846,846,849,852,2047,2047,2047,2047,2047,2047,2047,2047
2047,2047,2047,2047,2047,2047,2047,2047,605,603,604,603,603,602,602,600,599,599,598,596,593,592,590,590,590,590,589,588,588,588,589,589,590,590,591,591,592,592,593,593,594,594,595,593,595,597,600,600,600,600,601,601,602,603,604,604,605,605,605,605,605,606,607,608,609,609,609,609,610,610,611,611,611,612,613,614,614,615,615,615,616,680,680,681,681,683,684,686,686,687,688,688,688,689,689,689,688,688,687,686,686,686,686,686,686,687,687,687,687,687,688,688,688,688,688,688,688,688,689,689,690,690,691,691,691,692,692,692,713,713,716,716,718,719,720,721,721,721,1032,1032,1032,1032,1032,1032,1032,1032,1031,1032,1032,1032,1032,1032,1032,1032,1032,1032,1031,2047,2047,2047,2047,2047,2047,2047,2047,2047,2047,2047,2047,2047,2047,2047,2047,2047,2047,2047,2047,2047,2047,2047,2047,2047,2047,2047,2047,2047,2047,2047,2047,2047,2047,2047,2047,2047,2047,2047,2047,2047,2047,681,681,681,680,679,679,674,673,672,669,669,668,668,667,666,665,664,662,662,662,662,661,661,661,661,660,660,659,659,658,657,657,657,657,656,656,656,656,656,656,655,655,655,656,655,655,655,655,655,656,655,655,656,656,656,656,656,656,656,656,656,641,641,641,641,640,640,640,640,640,640,639,638,640,638,638,638,638,638,638,637,637,637,637,636,636,636,636,635,635,635,635,634,634,633,633,633,632,632,632,632,631,630,630,630,630,629,629,629,629,628,628,628,628,628,628,628,627,627,626,627,627,626,626,626,626,626,626,625,625,625,625,625,625,625,625,625,625,625,625,625,625,625,625,625,625,625,625,625,625,625,624,624,624,625,625,625,625,625,625,625,625,625,625,625,626,626,626,626,626,626,626,626,626,627,628,628,628,629,629,629,630,630,630,630,630,630,630,630,630,630,630,630,630,631,631,631,632,632,633,633,633,633,634,634,634,635,635,635,635,635,635,635,635,635,635,635,635,634,635,635,635,634,634,634,634,634,634,634,633,633,633,633,633,632,632,632,632,633,633,633,633,633,633,633,633,633,633,633,633,633,633,633,633,633,633,633,633,633,633,633,633,634,634,634,634,634,634,635,635,636,637,636,637,638,638,638,638,639,640,641,640,641,641,642,643,643,644,645,646,647,647,648,649,649,650,650,651,653,654,655,656,659,660,661,663,664,664,665,665,665,665,665,665,665,665,678,679,678,678,678,678,678,678,678,677,677,677,677,677,676,676,676,676,677,677,677,677,678,678,679,679,680,680,680,681,681,681,682,682,682,683,686,687,688,688,688,842,842,843,843,843,843,843,843,843,843,842,842,842,842,842,842,841,841,841,841,841,841,841,841,841,841,841,841,841,841,841,840,841,841,841,841,841,841,840,841,840,840,839,839,839,840,840,840,840,841,841,841,842,842,842,842,842,842,842,842,842,842,842,841,842,842,842,843,843,843,843,843,845,846,847,848,2047,2047,2047,2047,2047,2047,2047,2047
2047,2047,2047,2047,2047,2047,2047,2047,605,602,604,603,604,602,602,599,597,597,596,592,590,590,590,589,589,590,589,589,588,588,588,588,588,589,589,591,591,592,592,592,593,593,593,593,594,595,599,599,600,600,601,601,603,603,604,604,604,604,604,605,605,606,607,608,608,609,609,609,609,610,610,611,611,612,613,614,614,614,614,614,679,679,680,680,680,682,685,686,687,687,688,688,689,689,689,689,689,688,688,687,686,686,686,686,687,687,688,688,687,688,688,688,688,688,688,688,688,688,689,689,690,690,691,692,692,692,692,692,713,713,716,717,718,719,719,720,721,721,1032,1032,1032,1032,1032,1032,1032,1032,1031,1032,1032,1032,1032,1032,1032,1032,1032,1032,2047,2047,2047,2047,2047,2047,2047,2047,2047,2047,2047,2047,2047,2047,2047,2047,2047,2047,2047,2047,2047,2047,2047,2047,2047,2047,2047,2047,2047,2047,2047,2047,2047,2047,2047,2047,2047,2047,2047,2047,2047,2047,2047,681,681,680,680,679,677,674,672,671,669,668,668,667,667,665,665,664,662,662,661,661,661,661,661,660,660,660,659,659,657,657,657,657,657,656,656,656,656,656,655,655,655,655,655,655,655,655,655,655,655,655,655,656,656,656,656,656,655,656,656,656,641,641,641,641,640,640,640,640,640,639,638,638,639,638,638,638,637,638,637,637,637,637,637,636,636,636,636,635,635,634,634,634,634,633,633,633,632,632,632,631,631,630,630,629,629,629,629,628,628,628,628,628,628,628,627,627,627,626,626,627,626,626,626,626,625,625,625,625,625,625,625,624,624,624,624,624,625,625,625,625,625,625,625,625,625,625,625,625,625,625,624,624,624,624,624,625,625,625,625,625,625,625,625,625,625,626,626,626,626,626,626,626,626,626,627,627,628,628,628,629,629,629,629,630,630,630,630,630,630,630,630,630,630,630,630,630,631,631,631,631,632,632,633,633,634,634,634,634,634,634,634,634,634,634,635,635,634,634,634,634,634,634,634,634,634,634,633,633,633,633,633,633,632,632,631,631,631,631,632,632,632,632,633,633,633,633,633,633,633,633,633,633,633,633,633,632,633,633,633,633,633,633,633,633,633,633,634,634,634,635,635,635,636,636,637,637,637,638,638,638,638,639,639,640,641,641,642,643,644,644,645,645,647,647,647,648,649,650,652,653,653,654,656,657,658,660,662,663,664,664,665,665,664,664,664,664,682,681,679,678,678,678,678,678,677,677,677,677,677,677,676,677,677,676,676,676,677,677,677,677,677,678,678,678,679,679,679,680,680,680,681,682,684,685,686,686,687,687,688,690,691,842,842,842,842,842,842,842,841,841,841,842,841,841,841,841,841,841,841,841,841,840,840,840,840,840,840,840,841,841,841,841,841,841,841,841,841,840,840,840,839,839,839,839,839,840,840,839,841,841,840,840,840,840,840,840,840,842,842,842,842,842,842,843,843,842,843,844,844,845,846,847,2047,2047,2047,2047,2047,2047,2047,2047
623,624,624,624,624,624,624,624,624,624,624,624,623,622,622,622,621,621,621,621,620,621,621,621,620,620,620,620,620,619,619,618,618,617,617,617,617,617,616,616,616,618,618,619,619,620,620,619,620,619,615,614,2047,2047,2047,2047,2047,2047,2047,2047,2047,2047,2047,2047,2047,675,673,674,675,675,676,676,676,677,677,677,678,679,680,680,680,680,680,681,680,679,678,674,673,673,673,673,673,673,673,672,672,673,673,673,672,672,673,675,676,677,678,678,678,679,679,680,680,681,682,683,685,686,687,688,689,689,699,700,701,703,704,705,708,710,711,713,714,715,716,717,717,717,1032,1032,1032,1032,1032,1032,1032,1032,1032,1032,1032,1032,1032,1032,1032,1032,1032,1032,1032,1032,1032,1032,1032,2047,2047,2047,2047,2047,2047,2047,2047,2047,2047,2047,2047,2047,2047,2047,2047,2047,2047,2047,2047,2047,2047,2047,2047,2047,2047,2047,2047,2047,2047,2047,2047,2047,2047,2047,2047,2047,2047,2047,2047,2047,2047,2047,677,677,676,675,675,674,673,672,670,668,667,665,664,663,663,663,663,662,662,662,662,661,661,661,660,660,660,659,659,658,658,658,657,657,656,656,656,656,656,656,656,655,656,656,656,656,656,656,656,657,657,657,657,657,656,656,656,655,655,643,643,642,641,641,641,640,640,640,640,639,639,639,639,639,639,639,638,638,638,637,637,637,637,636,636,636,636,636,635,635,634,634,633,633,633,632,632,631,631,631,631,630,629,629,629,629,629,628,628,628,628,628,628,627,627,627,627,626,626,626,626,626,625,625,625,625,625,625,625,625,625,624,624,624,624,624,624,624,624,625,625,624,624,624,624,624,624,623,623,623,623,624,624,624,625,625,625,625,625,625,625,625,625,625,626,626,626,626,626,626,626,626,627,627,627,628,628,629,629,629,629,629,629,629,629,629,629,629,630,630,630,630,630,630,631,631,631,631,632,633,633,634,634,634,634,634,634,634,634,634,634,634,634,634,634,634,634,634,634,634,634,634,633,633,633,633,633,633,632,632,631,631,630,631,631,631,631,631,632,632,632,633,632,633,633,632,632,633,632,633,633,632,633,633,633,633,633,633,633,633,633,633,633,634,634,634,634,635,635,636,636,637,637,637,638,638,638,639,639,641,641,641,642,642,643,644,645,645,646,647,647,648,649,650,652,652,653,654,656,657,658,660,661,662,664,664,665,665,664,664,664,664,661,680,679,678,678,678,678,677,677,677,677,677,676,676,676,676,676,676,676,676,676,677,677,677,677,678,678,678,678,678,679,679,679,680,681,681,683,684,685,685,686,686,687,688,689,690,841,842,842,842,841,841,841,841,841,842,841,841,841,841,841,841,840,840,841,840,839,839,840,840,840,839,840,840,841,841,841,841,841,841,840,840,839,839,839,839,839,839,839,839,839,839,840,840,839,839,839,841,841,841,841,841,841,841,842,842,842,842,842,842,843,843,844,844,845,845,2047,2047,2047,2047,2047,2047,2047,2047
623,623,624,624,624,624,623,624,623,623,623,623,622,622,622,621,621,621,621,620,620,621,621,621,621,620,620,621,621,620,620,619,618,618,618,618,617,617,617,617,617,618,619,619,619,620,620,620,620,619,616,614,614,2047,2047,2047,2047,2047,2047,2047,2047,2047,2047,2047,2047,672,673,674,675,675,676,676,676,677,677,677,679,680,680,680,680,680,680,681,680,679,678,675,674,673,672,672,672,672,672,672,672,673,673,673,672,672,673,675,675,676,677,677,678,678,679,680,680,680,681,683,685,687,688,689,689,690,700,701,702,703,704,705,708,710,712,714,714,716,717,719,719,721,1032,1032,1032,1032,1032,1032,1031,1032,1031,1032,1032,1032,1032,1032,1032,1032,1032,1032,1032,1032,1032,1032,1032,2047,2047,2047,2047,2047,2047,2047,2047,2047,2047,2047,2047,2047,2047,2047,2047,2047,2047,2047,2047,2047,2047,2047,2047,2047,2047,2047,2047,2047,2047,2047,2047,2047,2047,2047,2047,2047,2047,2047,2047,2047,2047,678,677,677,676,675,674,673,672,671,670,668,665,664,664,663,663,663,662,662,661,661,661,661,661,661,660,660,659,659,658,657,657,657,657,657,656,656,656,656,656,656,656,655,656,656,656,656,656,656,656,657,657,657,657,657,656,656,656,655,655,643,643,642,641,641,640,640,640,640,640,639,639,639,640,640,639,639,638,638,638,637,637,637,637,636,637,636,636,636,635,635,634,634,633,633,633,632,632,631,631,630,631,629,629,629,629,629,629,628,628,628,628,628,627,627,626,627,626,626,626,626,625,625,625,625,625,625,625,625,624,624,624,624,624,624,624,624,624,624,624,624,624,624,624,623,624,623,623,623,623,623,623,623,623,623,624,624,624,624,624,624,625,625,624,625,625,625,625,626,626,626,626,626,626,626,626,627,627,628,629,629,629,629,629,629,629,629,629,629,629,630,629,629,630,630,630,630,631,631,632,632,633,633,633,633,634,634,634,634,634,634,634,634,634,634,634,634,634,634,633,633,633,633,633,633,633,633,633,632,632,631,631,630,630,630,630,631,631,631,632,632,632,632,632,632,632,632,632,633,632,633,633,632,633,633,633,633,633,633,633,633,633,633,633,633,633,634,634,635,635,636,636,637,637,637,638,638,638,639,639,640,641,641,642,642,643,644,644,645,646,646,646,647,649,649,651,652,653,654,656,657,658,660,661,662,663,664,664,664,664,664,664,663,662,680,678,678,678,678,678,677,677,677,677,676,676,676,675,676,675,675,675,675,676,677,677,677,677,677,677,677,678,678,678,678,679,679,680,681,682,684,685,685,685,686,686,687,688,689,841,841,841,841,841,841,841,841,841,841,841,841,841,841,841,841,840,840,840,839,839,838,840,840,840,840,840,840,840,840,840,840,840,840,839,839,838,838,838,839,839,839,839,838,838,838,838,838,838,838,838,840,841,841,841,841,841,841,841,842,842,842,842,842,842,843,843,843,844,844,2047,2047,2047,2047,2047,2047,2047,2047
622,623,623,623,623,623,622,622,622,622,622,622,622,621,621,621,621,621,621,620,620,621,621,621,621,620,620,620,620,620,620,618,618,618,618,617,617,617,616,616,617,617,618,619,619,620,621,621,620,618,615,613,2047,2047,2047,2047,2047,2047,2047,2047,2047,2047,2047,2047,2047,671,672,673,675,675,676,675,676,677,677,677,678,679,680,680,680,680,680,680,680,680,679,675,674,673,673,673,673,672,672,672,672,672,673,673,672,673,674,675,675,676,677,677,677,678,678,680,680,681,682,683,686,687,688,688,689,689,703,702,703,704,705,707,709,711,712,713,714,714,718,720,721,721,1032,1032,1032,1032,1031,1031,1031,1031,1031,1031,1031,1031,1032,1032,1032,1032,1032,1032,1032,1032,1032,1032,1032,2047,2047,2047,2047,2047,2047,2047,2047,2047,2047,2047,2047,2047,2047,2047,2047,2047,2047,2047,2047,2047,2047,2047,2047,2047,2047,2047,2047,2047,2047,2047,2047,2047,2047,2047,2047,2047,2047,2047,2047,2047,2047,678,677,677,676,675,674,673,672,671,669,667,665,664,663,663,662,662,662,662,661,661,661,661,660,660,660,659,659,658,657,657,657,657,657,657,656,656,656,656,656,656,656,655,655,655,656,655,656,656,656,656,657,656,657,657,656,656,655,653,653,647,643,642,641,641,640,640,640,639,639,639,639,638,638,638,638,638,637,638,637,637,637,637,637,636,636,636,636,635,635,634,634,634,633,633,633,632,632,631,630,630,630,629,629,629,628,628,628,628,628,628,627,627,627,626,626,626,626,626,626,626,625,625,625,625,625,625,625,624,624,624,624,623,623,623,623,624,624,624,624,624,624,624,623,623,623,623,623,623,622,622,622,623,623,623,623,623,623,624,624,624,624,624,624,624,625,625,625,625,625,626,626,626,626,626,626,626,627,627,628,628,628,628,629,629,629,629,629,629,629,629,629,629,629,629,630,630,630,630,631,632,632,633,633,633,633,634,633,634,633,633,634,634,633,633,633,633,633,633,633,633,633,633,633,633,632,632,632,632,631,631,630,630,630,630,630,630,631,631,631,631,631,632,632,632,632,632,632,632,632,632,632,632,632,632,633,633,633,633,633,633,633,633,633,633,633,634,634,634,635,635,636,637,637,637,637,638,638,638,639,640,641,641,641,642,643,643,644,644,645,646,646,646,648,648,650,651,653,654,656,657,659,660,661,662,663,664,664,664,664,664,664,664,680,679,678,678,677,677,677,677,677,677,677,676,676,675,675,676,675,675,675,675,675,676,676,676,676,677,677,677,678,678,678,678,679,679,680,681,682,683,684,684,685,686,686,686,687,688,839,840,840,841,841,841,841,841,841,841,841,840,840,840,840,839,839,839,839,839,838,839,839,839,839,839,839,839,839,840,839,839,839,839,838,838,838,838,837,838,838,838,839,838,838,838,838,838,838,838,838,838,838,841,841,841,841,841,841,841,841,841,842,842,842,843,843,843,843,844,2047,2047,2047,2047,2047,2047,2047,2047
621,621,621,622,622,622,622,622,621,621,621,621,621,621,621,621,621,621,621,620,621,621,621,621,621,621,620,620,620,620,620,619,618,618,618,618,617,617,617,617,617,619,620,621,621,621,621,622,622,622,625,2047,2047,2047,2047,2047,2047,2047,2047,2047,2047,2047,2047,2047,670,671,672,672,675,675,675,675,676,677,677,677,678,679,680,680,680,680,680,680,680,680,678,675,674,673,672,672,672,672,672,672,672,672,672,672,672,672,673,674,674,675,676,677,678,678,679,680,680,681,682,684,686,687,688,688,689,689,703,702,703,704,705,708,710,711,712,713,714,716,719,721,721,721,1032,1032,1032,1031,1031,1031,1031,1031,1031,1031,1031,1031,1031,1031,1031,1032,1032,1032,1032,1032,1032,1032,1032,2047,2047,2047,2047,2047,2047,2047,2047,2047,2047,2047,2047,2047,2047,2047,2047,2047,2047,2047,2047,2047,2047,2047,2047,2047,2047,2047,2047,2047,2047,2047,2047,2047,2047,2047,2047,2047,2047,2047,2047,679,678,678,677,677,676,675,673,673,672,670,669,667,665,664,663,662,662,661,661,661,661,661,661,660,660,660,660,659,658,657,657,657,656,657,656,656,656,656,656,656,656,656,655,655,655,655,655,654,654,655,656,656,657,656,656,657,656,656,656,656,656,644,644,642,641,641,640,639,639,639,639,639,638,638,638,638,638,638,637,637,637,637,637,637,637,636,636,636,635,635,635,634,634,633,633,633,632,632,632,631,630,630,629,629,629,629,628,628,628,628,628,627,627,626,627,626,625,626,626,625,626,626,625,625,625,625,625,625,625,624,624,624,624,623,623,624,623,624,623,623,624,624,624,623,623,622,623,622,622,622,622,622,622,622,622,622,623,623,623,623,623,623,623,623,623,623,624,624,624,624,624,625,625,626,626,626,626,626,626,627,627,628,628,628,628,628,628,628,629,628,629,629,629,629,629,629,629,629,630,630,630,631,631,632,633,633,633,633,633,633,633,633,633,633,633,633,633,633,633,633,633,632,632,632,632,632,632,631,631,631,631,630,630,630,630,630,630,630,630,630,631,631,631,631,631,632,631,631,631,632,632,632,632,632,632,632,633,632,632,632,632,632,633,633,633,633,633,633,634,634,635,635,636,636,637,637,637,638,638,638,638,639,640,641,641,642,642,642,643,644,645,646,646,647,648,648,650,651,652,654,655,656,658,660,661,662,663,663,663,664,664,664,664,663,679,678,678,678,677,677,677,677,677,677,676,676,676,675,675,675,675,675,675,676,676,676,676,676,676,676,676,677,677,677,678,678,678,678,679,680,681,683,684,684,684,685,685,686,687,688,839,839,839,841,841,841,840,841,840,840,840,840,839,839,839,838,839,838,838,838,838,838,838,839,839,839,839,839,839,839,839,839,839,839,838,838,838,838,837,838,838,837,838,838,838,837,838,838,838,838,838,838,838,838,840,841,841,840,841,841,841,841,841,841,842,842,843,843,843,843,2047,2047,2047,2047,2047,2047,2047,2047
620,621,621,621,621,622,621,621,621,621,621,621,621,620,620,620,621,621,621,620,621,621,621,621,621,621,620,620,620,620,619,619,618,618,618,618,618,618,617,618,620,620,621,622,621,622,622,623,624,625,625,656,2047,2047,2047,2047,2047,2047,2047,659,661,663,664,667,668,670,671,672,674,674,675,675,675,676,676,677,677,678,679,680,680,680,680,680,680,680,679,675,674,673,672,672,672,672,672,672,672,672,672,672,672,672,673,674,675,676,676,677,677,678,678,679,680,681,682,684,687,687,688,688,688,689,702,702,703,704,705,709,710,712,713,714,715,716,718,723,723,723,2047,1032,1032,1032,1032,1031,1031,1031,1031,1031,1031,1031,1031,1031,1031,1031,1032,1032,1032,1032,1032,1032,1032,2047,2047,2047,2047,2047,2047,2047,2047,2047,2047,2047,2047,2047,2047,2047,2047,2047,2047,2047,2047,2047,2047,2047,2047,2047,2047,2047,2047,2047,2047,2047,2047,2047,2047,2047,2047,2047,2047,2047,2047,678,678,677,677,676,675,674,673,672,671,670,668,667,665,664,662,662,661,661,661,661,661,660,661,660,660,659,659,657,657,657,656,657,656,657,656,656,656,656,656,656,655,655,655,654,654,654,654,654,654,654,655,656,656,656,656,656,656,656,656,656,656,643,643,642,641,640,640,639,639,639,639,638,638,638,638,638,638,638,637,637,637,637,637,636,636,636,636,635,635,635,634,634,633,633,633,632,632,632,631,630,630,629,629,628,628,628,628,628,627,627,627,626,626,625,626,625,625,626,625,625,625,625,625,625,625,625,625,624,624,624,623,623,623,623,622,623,622,623,623,623,623,623,623,622,622,622,622,622,622,622,622,622,622,622,622,622,622,622,622,623,623,622,623,623,622,623,623,623,623,624,624,624,625,625,625,626,626,626,626,627,627,627,628,628,628,628,628,628,628,628,629,629,629,629,629,629,629,629,629,630,630,631,631,632,632,632,632,632,632,633,633,633,633,633,632,632,632,632,632,632,632,632,632,632,632,632,632,631,630,630,630,630,630,630,630,630,630,630,630,630,630,630,630,631,631,631,631,631,631,632,631,631,631,631,632,632,632,632,632,632,632,632,632,633,633,633,633,633,634,634,635,635,636,636,637,637,637,637,638,638,638,639,639,640,640,641,642,642,643,644,644,645,646,646,647,648,649,651,652,653,655,656,657,659,660,662,662,663,663,664,664,664,664,664,678,678,677,677,677,677,677,677,676,676,675,675,675,675,675,675,675,675,675,676,675,675,675,675,675,675,675,676,677,677,677,677,678,678,678,680,681,682,683,684,684,685,685,685,686,839,839,839,840,840,840,841,840,841,840,840,840,840,839,839,838,838,838,838,838,838,838,838,838,838,838,838,838,839,839,839,839,839,838,838,838,838,837,837,837,837,837,837,838,837,837,837,837,838,838,838,838,838,838,838,838,840,840,840,841,841,841,841,841,841,842,842,842,843,843,843,2047,2047,2047,2047,2047,2047,2047,2047
620,620,620,621,621,621,621,621,621,621,621,621,621,620,620,620,620,621,621,621,621,621,621,621,621,621,621,620,620,620,620,619,618,618,618,618,618,618,618,619,620,621,621,621,622,622,622,624,625,656,656,656,656,656,656,2047,2047,2047,2047,658,664,664,665,668,669,670,671,672,674,674,675,675,676,676,676,677,677,677,677,679,679,679,680,680,680,679,679,675,674,673,673,672,672,672,672,672,672,672,672,672,672,672,673,674,674,675,676,676,677,678,678,679,680,681,682,683,687,688,689,689,689,690,702,702,703,704,706,709,711,712,713,714,716,716,718,723,723,2047,2047,1032,1031,1031,1031,1031,1031,1031,1031,1031,1031,1031,1031,1031,1031,1031,1031,1031,1031,1032,1032,1032,1032,2047,2047,2047,2047,2047,2047,2047,2047,2047,2047,2047,2047,2047,2047,2047,2047,2047,2047,2047,2047,2047,2047,2047,2047,2047,2047,2047,2047,2047,2047,2047,2047,2047,2047,2047,2047,2047,2047,2047,679,678,677,677,676,676,674,674,673,672,671,669,668,667,665,663,662,662,661,661,661,661,660,660,660,660,659,659,658,657,657,657,657,656,656,656,656,656,656,656,655,655,655,655,655,654,653,653,653,653,654,654,654,655,656,656,656,656,656,656,655,654,654,641,641,641,641,640,640,639,639,639,639,638,638,637,637,638,638,637,637,637,637,637,637,636,636,636,636,635,634,634,633,633,633,633,632,632,632,632,631,630,630,629,629,628,629,628,628,628,627,627,627,626,625,625,625,625,624,625,625,625,625,625,625,625,625,624,624,624,624,623,623,623,623,622,622,622,622,622,622,622,622,622,622,622,622,622,622,622,622,622,622,622,622,622,622,622,622,622,622,622,622,622,622,622,622,623,623,623,623,623,623,623,624,625,625,625,625,626,626,626,627,627,627,627,628,628,628,628,628,628,629,629,629,629,628,628,629,629,629,629,630,630,630,631,631,631,631,631,631,632,632,632,632,632,632,632,632,632,632,632,632,632,632,632,632,632,631,631,630,630,630,630,629,629,629,629,629,629,629,630,630,630,630,631,631,631,631,631,631,631,631,631,631,631,631,632,632,631,632,631,631,631,632,632,632,632,633,633,633,634,634,634,635,636,636,637,637,637,637,638,638,638,639,640,640,641,642,642,643,644,644,645,645,646,647,647,649,650,651,653,654,655,657,659,660,662,663,663,663,664,664,664,664,664,678,678,677,677,677,677,677,676,675,675,675,674,674,675,675,675,675,675,675,675,675,675,675,675,675,675,675,676,676,677,677,677,677,677,678,678,679,680,682,683,683,684,684,684,685,685,685,841,840,841,840,840,840,839,839,839,838,838,838,838,838,838,838,838,838,838,838,838,837,837,837,838,838,837,837,837,837,837,837,837,837,837,837,837,837,837,837,837,837,837,837,837,837,838,838,838,838,839,838,839,839,839,840,839,839,840,840,840,840,841,841,842,842,842,842,843,2047,2047,2047,2047,2047,2047,2047,2047
631,633,635,634,635,635,636,636,636,636,637,637,638,638,639,639,640,640,642,643,643,643,645,646,646,645,647,649,648,648,646,655,656,657,658,659,660,661,661,662,663,664,664,664,664,664,663,663,662,661,662,663,662,662,662,663,664,664,664,663,664,665,665,665,665,665,665,666,666,669,673,673,674,675,675,675,675,675,674,674,673,671,670,669,668,668,669,669,670,670,671,672,672,673,673,675,676,676,677,678,679,680,681,681,681,682,682,682,683,684,684,684,684,684,685,697,697,697,697,698,700,701,702,703,704,704,705,705,707,708,709,710,712,714,715,717,717,718,718,718,1032,1032,1032,1032,1032,1032,1032,1032,1031,1031,1031,1032,1032,1032,1032,1032,1032,1032,1032,1032,2047,2047,2047,2047,2047,2047,2047,2047,2047,2047,2047,2047,2047,2047,2047,2047,2047,2047,2047,2047,2047,2047,2047,2047,2047,2047,2047,2047,2047,2047,2047,2047,2047,2047,2047,2047,2047,2047,2047,2047,2047,2047,2047,2047,680,679,679,677,677,674,673,673,671,671,669,668,667,666,665,664,664,663,662,661,661,661,660,660,660,659,659,658,658,658,657,657,657,657,657,657,657,656,656,656,656,655,655,654,655,655,655,655,656,656,656,656,657,657,657,656,656,657,656,656,656,655,655,642,641,641,640,640,640,640,640,640,640,640,639,639,639,638,638,638,638,637,637,637,637,637,636,636,635,635,634,634,634,633,633,633,633,632,631,630,630,629,629,629,629,629,628,628,628,627,627,627,627,626,626,626,626,626,626,626,626,625,625,625,625,625,625,625,624,624,623,623,622,622,622,622,622,622,622,622,622,622,622,622,622,622,622,622,622,622,622,622,622,622,622,622,622,622,622,622,622,622,622,622,622,622,622,622,623,623,624,624,624,625,625,625,625,626,626,626,626,626,627,627,627,627,627,627,628,628,627,627,627,627,627,627,627,627,628,629,629,630,630,630,630,630,630,630,630,630,630,631,631,631,631,631,631,632,632,631,631,632,631,631,631,630,630,630,630,630,629,629,629,629,629,629,629,629,629,629,629,629,629,630,630,630,630,630,631,630,630,630,630,631,631,630,630,630,630,630,630,630,630,631,631,632,632,633,633,633,633,634,634,635,635,635,636,636,636,637,637,637,637,638,638,639,640,641,641,642,642,643,644,645,645,646,647,648,649,651,652,654,655,656,659,661,661,662,663,663,663,663,663,663,678,677,677,677,677,677,676,676,676,675,675,675,675,674,675,675,675,675,675,675,675,675,675,675,675,675,676,676,676,676,676,677,677,678,678,679,681,682,682,683,684,684,684,684,684,841,841,841,841,840,839,839,838,838,838,838,837,837,837,837,837,837,837,837,837,837,837,837,837,837,837,837,837,837,837,836,836,836,836,836,836,837,836,836,837,837,837,837,837,837,837,838,837,837,838,838,838,838,838,838,839,838,838,839,839,841,839,840,841,841,842,841,842,842,2047,2047,2047,2047,2047,2047,2047,2047
633,635,636,635,636,636,636,636,636,636,637,638,638,638,639,640,640,641,643,644,644,645,646,648,647,647,648,650,649,648,656,656,657,657,658,659,660,661,661,662,663,664,664,664,664,663,663,662,661,661,661,661,661,661,662,662,662,664,662,662,663,664,664,664,664,664,665,665,665,669,673,673,673,674,675,675,674,674,673,672,672,670,669,669,668,668,668,669,670,670,671,672,672,673,673,674,675,676,677,678,678,679,680,681,681,681,682,682,683,683,683,684,684,684,685,697,697,697,697,698,700,701,702,703,704,704,705,705,707,708,709,710,713,715,716,717,718,718,718,718,1033,1032,1032,1032,1032,1032,1032,1032,1031,1031,1030,1031,1032,1032,1032,1032,1033,1033,1033,1032,2047,2047,2047,2047,2047,2047,2047,2047,2047,2047,2047,2047,2047,2047,2047,2047,2047,2047,2047,2047,2047,2047,2047,2047,2047,2047,2047,2047,2047,2047,2047,2047,2047,2047,2047,2047,2047,2047,2047,2047,2047,2047,2047,2047,678,678,677,676,675,674,673,672,671,670,669,668,666,665,664,664,663,662,661,661,661,660,660,660,660,659,658,658,657,657,657,657,656,656,656,656,656,656,656,656,656,655,654,654,654,654,654,653,654,655,656,656,656,656,656,656,656,657,657,656,656,655,655,641,641,641,640,640,640,640,639,639,640,639,640,639,639,639,638,638,638,637,637,637,637,637,636,635,635,634,634,634,633,633,633,633,633,632,631,630,630,629,629,629,628,628,628,628,627,627,626,626,626,625,625,626,626,625,625,625,625,625,625,625,624,625,624,624,623,623,622,622,622,622,622,622,622,622,621,621,622,622,622,622,622,622,622,622,622,622,621,621,622,621,622,622,622,622,622,622,622,622,622,622,622,622,622,622,622,622,623,624,624,624,625,625,625,625,625,626,626,626,626,626,626,626,626,627,627,627,626,626,626,627,627,626,627,627,628,629,629,629,630,630,630,630,630,630,630,630,630,630,630,630,631,631,631,631,632,631,631,631,631,631,630,630,630,630,630,630,629,629,629,629,628,628,628,628,628,629,629,629,629,629,629,629,629,630,630,630,630,630,630,630,630,630,630,630,630,630,630,630,630,630,630,631,632,632,632,633,633,634,634,634,634,634,635,635,636,636,636,637,637,638,638,638,640,641,641,641,642,642,643,644,645,646,647,648,650,651,652,654,654,656,658,661,661,663,663,663,663,662,663,663,677,677,677,677,677,676,676,676,676,675,675,675,675,675,675,675,675,675,675,675,675,675,675,675,675,675,675,675,675,675,675,676,676,677,678,679,681,682,682,683,683,683,684,684,684,841,841,841,841,840,839,839,839,838,838,838,838,838,838,837,838,837,837,837,837,837,837,837,836,836,836,836,836,836,836,836,836,836,836,836,836,837,837,837,837,837,837,837,837,837,837,837,837,837,838,837,837,837,838,838,838,838,838,838,838,839,839,839,840,841,841,841,841,842,2047,2047,2047,2047,2047,2047,2047,2047
635,636,636,636,637,637,637,637,637,638,638,639,639,639,640,640,641,643,644,645,645,645,650,650,649,650,651,652,654,655,656,657,657,657,658,659,659,661,661,662,664,664,664,664,663,663,663,662,661,660,660,661,661,661,661,661,662,662,661,662,663,664,664,664,664,664,665,665,666,671,674,673,674,674,675,675,674,674,672,671,670,669,669,668,668,668,668,669,669,670,671,672,672,673,673,674,675,676,677,677,678,679,680,680,681,681,681,682,682,683,683,683,684,684,685,685,697,697,698,699,700,701,702,703,704,704,705,706,707,708,709,710,714,716,717,718,719,719,719,719,719,1032,1032,1032,1031,1032,1032,1031,1030,1030,1030,1031,1032,1032,1032,1033,1033,1032,2047,2047,2047,2047,2047,2047,2047,2047,2047,2047,2047,2047,2047,2047,2047,2047,2047,2047,2047,2047,2047,2047,2047,2047,2047,2047,2047,2047,2047,2047,2047,2047,2047,2047,2047,2047,2047,2047,2047,2047,2047,2047,2047,2047,2047,2047,678,677,677,676,675,674,673,672,671,670,669,668,666,665,664,663,663,662,661,661,660,660,659,659,659,659,658,658,657,657,656,656,656,656,656,656,656,655,656,656,656,655,654,654,654,654,653,653,653,654,654,655,656,656,656,656,656,656,656,656,656,655,655,641,641,641,640,640,640,639,639,639,638,639,639,639,639,638,638,638,638,637,637,637,637,636,636,635,634,634,634,633,633,633,633,633,632,632,631,630,630,629,629,629,628,628,628,628,627,626,626,625,625,625,625,626,625,625,625,625,625,624,624,624,623,624,623,623,622,622,622,622,621,621,621,621,621,621,621,621,621,621,621,621,622,622,622,622,621,621,621,621,621,621,621,621,621,621,622,622,622,621,621,622,622,622,622,622,622,622,622,623,623,624,624,625,625,625,625,625,626,625,626,626,626,626,626,626,626,626,626,626,626,626,626,626,626,627,628,628,629,629,629,629,629,629,629,629,630,630,630,630,630,630,631,631,631,631,631,631,630,631,630,630,630,630,630,630,630,629,629,629,629,628,628,628,627,628,627,628,628,628,629,629,629,629,629,630,630,630,630,630,630,630,630,630,630,630,630,630,630,630,630,630,630,631,632,632,632,633,633,633,634,634,634,634,634,635,635,635,636,637,637,638,638,638,639,640,641,641,642,642,643,643,644,645,646,648,649,650,651,653,654,656,659,661,661,663,663,663,663,662,662,678,677,677,676,677,676,676,675,676,675,675,675,674,674,675,675,674,674,675,675,675,674,674,674,674,674,674,674,674,674,674,674,675,675,676,677,678,680,681,681,682,683,683,683,684,684,841,841,841,841,839,839,838,838,837,837,837,837,837,838,838,838,837,837,837,837,837,837,837,836,835,836,836,835,835,835,835,836,836,836,836,836,837,837,837,837,837,837,837,837,837,837,837,836,837,837,837,837,837,838,838,838,838,838,838,838,839,839,839,840,841,841,841,841,842,2047,2047,2047,2047,2047,2047,2047,2047
635,636,637,637,637,638,638,638,639,639,639,640,641,641,642,642,644,645,645,645,645,645,654,652,652,653,653,654,655,654,656,657,657,657,658,658,659,660,661,662,663,664,663,663,663,662,662,661,661,660,660,660,661,660,661,661,661,662,662,662,662,664,663,663,663,664,664,664,665,665,674,673,673,674,674,674,673,673,671,670,669,669,668,668,667,667,668,669,670,670,671,672,672,673,673,674,675,676,676,677,678,679,679,680,681,681,681,682,682,683,683,683,683,683,683,696,696,697,697,699,700,701,702,703,703,704,705,706,707,708,709,710,713,717,717,718,719,719,718,718,1033,1032,1032,1032,1032,1032,1032,1032,1030,2047,2047,2047,2047,2047,2047,2047,2047,2047,2047,2047,2047,2047,2047,2047,2047,2047,2047,2047,2047,2047,2047,2047,2047,2047,2047,2047,2047,2047,2047,2047,2047,2047,2047,2047,2047,2047,2047,2047,2047,2047,2047,2047,2047,2047,2047,2047,2047,2047,2047,2047,2047,2047,2047,677,678,677,677,675,675,673,672,671,670,669,668,667,666,665,664,663,662,662,661,660,660,660,659,659,659,658,658,657,657,657,656,656,656,656,656,655,655,655,655,655,655,654,654,654,654,654,653,653,653,653,654,654,655,656,656,656,656,656,656,656,656,655,655,641,641,641,640,640,640,639,639,639,638,639,639,639,639,638,638,638,637,637,637,637,636,636,636,635,634,634,634,633,633,633,633,632,632,631,631,630,630,629,629,629,628,628,628,627,626,626,625,625,625,625,624,625,625,625,624,624,624,624,624,623,623,623,623,623,622,622,621,621,621,621,621,621,621,621,621,621,621,621,621,621,621,621,621,621,621,621,621,621,621,621,621,621,621,621,622,622,622,621,621,622,621,622,622,622,622,622,622,622,623,623,624,625,625,625,625,625,625,625,625,625,625,625,625,626,626,626,625,625,625,626,626,626,626,626,627,628,628,629,629,629,629,629,629,629,629,629,629,630,630,630,630,630,630,631,631,630,630,630,630,630,630,630,630,629,630,629,629,629,629,628,628,627,627,627,627,628,628,628,629,629,629,629,629,630,630,630,629,629,629,630,630,630,630,630,630,629,630,630,630,630,630,630,631,631,631,632,632,633,633,634,634,634,634,634,635,635,635,636,637,637,637,638,639,640,641,641,642,642,643,644,645,645,646,647,649,650,652,654,655,657,660,661,661,663,663,663,662,662,662,678,678,677,677,677,676,676,675,675,675,674,674,674,674,674,674,674,674,674,675,674,674,674,674,674,674,674,674,674,674,674,674,675,675,676,676,677,679,680,681,681,682,682,682,683,683,842,842,842,841,839,837,837,837,837,837,837,837,837,838,837,837,837,837,837,837,837,836,836,835,835,834,835,834,834,834,834,834,835,835,836,836,837,837,837,837,836,836,836,837,836,836,835,835,837,836,835,835,835,837,837,837,837,837,837,838,839,839,839,840,840,841,841,841,842,2047,2047,2047,2047,2047,2047,2047,2047
636,636,637,638,638,640,639,640,640,640,641,641,642,642,643,643,645,645,645,653,655,655,655,654,653,654,654,654,655,654,656,657,657,657,658,658,659,660,661,661,663,663,663,663,663,662,662,661,661,660,660,660,660,660,661,661,661,661,661,662,662,663,662,662,662,662,663,663,663,674,674,673,674,674,674,674,673,672,670,669,668,668,668,668,667,667,667,668,669,669,671,671,671,672,672,673,674,675,676,677,678,679,679,680,681,681,681,682,683,683,683,683,684,683,685,686,696,697,698,699,701,701,702,702,703,704,705,706,708,710,710,712,714,716,716,718,719,718,718,718,1033,1032,1032,1032,1032,1032,1032,1032,1030,1030,1030,2047,2047,2047,2047,2047,2047,2047,2047,2047,2047,2047,2047,2047,2047,2047,2047,2047,2047,2047,2047,2047,2047,2047,2047,2047,2047,2047,2047,2047,2047,2047,2047,2047,2047,2047,2047,2047,2047,2047,2047,2047,2047,2047,2047,2047,2047,2047,2047,2047,2047,2047,678,677,677,677,676,675,674,673,672,671,669,669,668,667,666,665,664,663,662,661,660,660,660,659,659,658,658,658,658,657,657,657,656,656,656,656,655,655,655,655,655,655,655,654,654,654,654,654,653,653,653,653,653,654,655,655,656,656,656,656,656,656,656,655,655,642,641,641,640,640,640,639,639,638,638,638,639,639,638,638,638,638,637,637,637,637,636,636,635,635,634,633,633,633,633,632,632,632,632,631,631,630,630,629,629,628,628,628,627,627,626,626,625,625,625,625,624,625,625,625,624,624,624,623,623,623,622,622,622,622,622,621,621,621,621,621,621,621,620,621,620,620,621,621,621,621,621,621,621,621,621,621,621,621,621,621,621,621,621,621,621,621,621,621,621,621,621,621,621,621,621,621,621,622,622,622,623,624,624,624,625,625,625,625,625,625,625,625,625,625,625,625,625,625,625,625,626,626,626,626,626,627,627,628,628,628,628,628,628,629,629,629,629,629,629,629,630,630,630,630,630,630,630,630,629,629,629,629,629,629,629,629,629,628,628,627,627,627,626,627,627,628,628,628,629,629,629,629,629,629,630,630,629,629,629,630,630,630,630,630,629,629,629,629,629,629,630,630,630,631,631,631,632,632,633,633,634,634,634,634,635,635,635,635,636,637,637,638,639,640,641,641,642,642,643,643,644,645,646,647,648,650,652,653,654,657,660,661,661,662,663,662,662,661,661,678,678,677,677,676,676,675,675,675,675,674,674,674,674,674,674,674,674,674,674,674,674,674,674,674,674,674,674,674,674,674,674,674,675,675,676,677,678,679,680,680,681,682,682,682,682,682,684,684,684,838,836,836,836,837,837,837,837,837,836,837,837,837,837,836,836,837,836,836,835,834,834,834,834,833,833,834,834,834,834,836,836,837,837,837,837,836,836,836,836,836,835,835,835,835,837,837,837,835,836,836,837,837,837,837,838,838,838,839,839,840,840,841,841,841,2047,2047,2047,2047,2047,2047,2047,2047
636,637,637,638,639,640,640,640,641,641,641,642,643,643,643,643,656,656,656,657,656,656,656,655,655,655,655,655,655,655,656,657,657,657,657,658,660,660,661,661,662,662,662,662,662,661,661,661,660,660,660,660,660,660,660,660,660,661,660,661,661,662,662,662,662,662,663,662,662,663,673,673,674,674,674,673,673,672,670,669,668,667,667,667,666,666,666,667,668,669,670,671,671,672,672,673,674,675,676,677,678,679,679,680,681,681,681,682,682,683,683,683,683,683,685,686,686,696,698,699,700,701,701,702,702,704,705,707,709,710,711,712,714,716,716,717,719,719,719,1033,1032,1032,1032,1032,1031,1032,1031,1031,1031,1030,1030,2047,2047,2047,2047,2047,2047,2047,2047,2047,2047,2047,2047,2047,2047,2047,2047,2047,2047,2047,2047,2047,2047,2047,2047,2047,2047,2047,2047,2047,2047,2047,2047,2047,2047,2047,2047,2047,2047,2047,2047,2047,2047,2047,2047,2047,2047,2047,2047,2047,2047,2047,678,677,677,676,676,675,674,673,671,670,669,668,667,666,665,665,664,662,662,661,660,660,660,659,658,658,658,658,658,657,657,657,656,656,655,655,654,654,654,654,654,654,654,654,653,654,653,653,653,653,653,653,653,653,654,655,655,655,656,656,656,656,656,655,655,641,641,641,640,640,640,639,639,638,638,638,638,638,638,638,638,638,637,637,636,636,636,636,635,634,634,633,633,633,633,632,632,632,632,631,631,630,630,629,629,628,628,627,627,626,626,625,625,625,625,625,624,625,625,624,624,623,623,622,622,622,622,622,622,621,621,621,621,621,620,620,620,620,620,620,620,620,621,621,621,621,621,621,621,621,621,620,620,621,621,621,621,621,621,621,621,621,621,621,621,621,621,621,621,621,621,621,621,622,622,623,623,624,624,624,624,624,624,624,625,624,624,625,625,625,625,625,625,625,625,625,625,625,625,626,626,626,627,627,627,627,627,628,628,628,628,628,629,629,629,629,629,630,629,629,630,630,630,630,629,629,629,629,629,629,629,629,628,628,628,627,627,626,626,626,626,627,627,628,628,629,629,629,629,629,630,629,629,629,629,629,630,629,629,629,629,629,629,629,629,629,629,629,630,630,630,631,631,632,632,633,633,634,634,634,634,634,634,635,636,637,637,638,639,640,641,641,641,642,642,643,644,644,645,646,648,650,651,653,655,657,660,661,661,662,662,662,662,661,661,678,678,677,676,676,676,675,675,674,675,674,674,674,674,674,674,674,674,674,674,674,674,674,674,674,674,674,674,674,674,674,674,674,674,675,675,677,677,678,679,679,680,681,681,682,682,682,683,685,685,837,835,835,836,837,837,837,837,837,836,836,836,837,837,836,836,837,836,835,835,834,834,834,834,833,833,833,834,835,834,835,834,836,837,837,837,836,836,836,836,836,835,835,834,835,835,835,835,835,835,836,836,837,837,836,837,838,838,838,839,840,840,840,841,842,2047,2047,2047,2047,2047,2047,2047,2047
648,648,647,648,648,651,652,651,651,651,652,653,653,654,655,656,657,656,657,657,657,657,657,657,657,658,658,658,659,659,660,660,660,660,661,661,661,661,660,659,659,658,657,657,656,657,657,657,659,659,660,660,660,660,660,661,661,661,661,662,662,663,663,662,663,664,664,664,665,665,665,672,673,673,673,673,673,672,671,669,668,668,668,667,667,667,667,668,669,669,672,672,673,674,675,676,678,679,680,681,681,682,682,682,683,684,684,684,685,685,685,685,686,686,694,695,696,697,698,700,701,701,702,702,703,704,705,705,707,709,710,710,712,713,714,715,716,717,719,719,720,720,2047,2047,2047,2047,2047,2047,2047,2047,2047,2047,2047,2047,1033,1033,2047,2047,2047,2047,2047,2047,2047,2047,2047,2047,2047,2047,2047,2047,2047,2047,2047,2047,2047,2047,2047,2047,2047,2047,2047,2047,2047,2047,2047,2047,2047,2047,2047,2047,2047,2047,2047,2047,2047,2047,2047,2047,2047,2047,2047,2047,2047,2047,680,679,678,677,677,676,676,675,674,673,672,670,669,668,668,667,666,665,664,664,662,661,660,660,660,660,659,659,659,658,658,657,657,657,656,656,656,655,655,655,655,655,655,655,656,655,654,654,654,654,654,654,654,654,655,655,656,656,657,656,657,657,657,657,657,657,657,657,641,640,640,640,640,640,640,640,640,640,640,640,640,639,638,638,637,637,637,636,636,636,635,635,634,633,633,633,632,632,632,631,631,630,630,629,629,629,628,628,628,628,627,627,627,626,626,627,626,626,625,625,624,623,623,622,622,622,622,622,622,621,622,621,621,621,621,621,620,620,620,620,620,620,620,620,621,621,621,621,621,621,621,621,621,621,621,621,621,621,621,621,621,621,621,621,621,621,621,621,621,621,621,621,622,622,622,623,623,623,623,623,624,623,624,623,623,624,624,624,624,625,625,625,625,625,625,625,625,625,625,625,625,625,625,626,625,626,626,626,627,627,627,628,628,628,628,629,629,629,629,629,629,629,629,629,629,629,629,629,629,629,629,628,628,627,627,626,626,626,626,626,627,627,627,628,627,628,628,628,629,629,629,629,629,629,629,629,629,629,629,629,629,629,629,629,629,629,629,629,629,629,629,630,630,631,631,632,633,633,633,633,633,633,634,634,634,635,636,637,638,638,638,639,639,640,641,641,642,643,644,645,646,647,649,651,653,654,655,659,660,661,661,662,662,662,678,678,678,678,677,677,676,676,676,675,675,674,674,674,674,674,674,674,674,674,674,674,674,674,674,674,674,674,674,674,675,675,676,676,677,677,677,678,678,679,679,681,681,682,682,682,683,683,837,837,836,836,836,836,836,836,836,835,835,835,835,836,836,836,836,836,835,835,835,834,835,834,834,833,834,833,834,834,834,834,834,834,835,835,835,834,834,834,834,835,835,835,834,834,835,835,835,835,835,835,835,836,837,837,837,838,838,838,838,839,838,840,841,842,2047,2047,2047,2047,2047,2047,2047,2047
649,649,648,649,649,651,652,652,652,652,652,653,653,653,654,656,656,655,656,656,657,657,657,657,657,658,658,658,659,659,660,660,661,661,661,661,661,661,660,660,659,657,657,656,656,656,657,656,658,659,660,659,660,660,660,660,661,661,661,661,661,662,662,662,663,664,664,664,665,665,665,672,673,673,673,673,673,672,670,669,668,668,667,666,666,667,667,668,668,669,671,672,672,674,675,676,677,679,680,681,681,681,682,682,683,684,684,684,685,685,685,685,686,689,693,694,695,696,698,699,701,701,702,702,703,704,704,705,707,709,710,710,712,713,714,715,717,718,719,719,720,720,2047,2047,2047,2047,2047,2047,2047,2047,2047,2047,1031,1031,1032,1032,2047,1031,2047,2047,2047,2047,2047,2047,2047,2047,2047,2047,2047,2047,2047,2047,2047,2047,2047,2047,2047,2047,2047,2047,2047,2047,2047,2047,2047,2047,2047,2047,2047,2047,2047,2047,2047,2047,2047,2047,2047,2047,2047,2047,2047,2047,2047,2047,681,678,677,676,676,675,675,674,673,673,672,669,669,668,667,666,665,664,664,663,662,661,660,660,659,659,659,658,658,658,657,657,657,656,656,655,655,655,655,655,655,654,655,655,654,655,654,654,654,654,654,654,654,654,654,654,655,655,656,656,656,656,656,656,657,657,657,641,640,640,640,640,640,640,640,639,639,640,640,640,640,639,639,638,637,637,637,636,636,636,636,635,635,633,633,632,632,631,631,631,630,630,629,629,629,628,628,628,627,627,627,627,626,626,625,626,626,625,625,624,624,623,622,622,622,622,621,621,621,621,621,621,621,621,620,620,620,620,620,620,620,619,620,620,620,620,620,620,620,620,620,620,620,620,620,620,620,620,620,621,621,620,620,620,621,620,621,620,620,621,621,621,621,621,621,621,622,622,623,622,623,623,623,623,623,623,624,624,624,624,624,625,624,625,624,624,624,624,624,624,625,625,625,626,625,626,626,626,626,626,627,627,628,627,628,628,628,628,629,629,629,629,629,628,628,629,628,628,628,628,628,628,628,627,627,626,626,626,626,626,626,626,626,627,627,627,628,628,628,628,628,628,629,629,629,629,629,629,629,629,629,629,629,629,629,629,629,629,629,629,629,629,630,630,631,632,632,633,633,633,633,633,634,634,634,635,636,637,637,638,638,639,639,639,640,641,642,643,644,645,646,646,648,650,653,654,655,659,660,661,662,662,662,663,678,678,677,677,677,676,676,676,676,674,674,674,674,674,674,674,673,674,674,674,674,674,674,674,674,673,674,674,674,674,674,675,675,676,676,677,677,678,678,679,679,680,681,681,682,682,682,682,688,690,836,836,836,836,835,835,835,835,835,835,835,835,836,836,836,836,835,835,835,834,834,834,834,834,834,834,834,834,834,834,834,834,834,834,834,834,834,834,834,835,835,835,835,835,835,835,835,835,834,835,835,836,837,837,837,838,838,838,838,838,838,839,840,841,2047,2047,2047,2047,2047,2047,2047,2047
649,649,648,649,649,652,652,652,652,652,653,653,653,653,654,655,655,654,654,654,656,656,656,656,657,657,658,658,659,659,660,660,661,661,661,661,661,661,660,660,659,657,656,656,656,656,656,656,658,659,659,659,660,660,660,661,661,661,661,661,661,662,662,662,662,663,664,664,665,665,668,671,672,672,673,672,672,672,671,669,669,668,667,666,666,667,666,667,668,668,670,671,672,673,674,675,677,678,680,681,681,681,681,682,683,684,684,684,684,685,685,685,686,686,693,695,695,696,697,699,701,702,703,703,703,704,705,705,707,709,709,710,712,713,715,716,717,718,719,719,719,1030,1030,1030,1030,1030,1029,1030,1029,1029,1031,1031,1031,1031,1031,1032,1031,1031,1030,1029,2047,2047,2047,2047,2047,2047,2047,2047,2047,2047,2047,2047,2047,2047,2047,2047,2047,2047,2047,2047,2047,2047,2047,2047,2047,2047,2047,2047,2047,2047,2047,2047,2047,2047,2047,2047,2047,2047,2047,2047,2047,2047,2047,2047,2047,678,677,676,676,676,675,674,673,672,670,670,669,668,667,666,665,664,664,663,662,661,660,659,658,658,658,658,657,657,657,657,657,656,656,656,655,655,655,655,654,654,654,654,654,655,654,654,654,654,653,653,654,654,654,654,654,655,656,655,656,656,656,656,656,656,657,641,641,640,640,640,640,640,640,640,639,640,640,639,640,638,638,638,637,637,637,636,636,636,636,635,634,633,633,632,632,631,631,630,630,629,629,629,629,628,628,628,627,627,627,626,626,625,625,626,625,625,625,624,623,623,622,622,622,621,621,621,621,621,621,620,620,620,620,620,620,620,619,620,619,619,620,619,620,620,620,620,620,620,620,620,620,620,620,620,620,620,620,620,620,620,620,620,620,620,620,620,620,620,620,621,621,621,621,621,622,622,622,622,622,622,622,623,623,623,623,623,623,624,624,624,624,624,624,624,624,624,624,624,624,624,625,625,625,626,626,626,626,626,626,627,627,627,628,628,628,628,628,628,629,629,628,628,628,628,628,628,628,627,627,627,627,626,626,626,625,625,625,626,626,626,626,626,626,626,627,627,628,628,628,628,628,629,629,629,629,629,629,629,629,629,629,629,629,629,628,628,628,629,629,629,629,630,631,632,632,633,633,633,633,633,634,634,634,635,635,637,637,637,638,639,639,640,641,641,642,643,644,645,646,646,647,650,652,653,655,658,661,661,662,662,662,663,678,678,677,677,677,676,676,676,676,674,674,674,674,674,673,674,673,674,673,673,673,673,673,673,673,673,673,674,674,674,674,674,674,674,675,676,676,677,677,678,679,679,680,681,681,682,682,682,688,690,690,691,835,835,835,834,835,835,835,835,834,835,835,835,834,836,835,835,834,834,834,834,834,833,834,833,833,834,834,833,834,833,834,833,834,834,834,834,834,834,834,834,834,834,835,835,834,834,834,834,834,835,835,835,835,837,837,837,838,837,838,838,838,839,2047,2047,2047,2047,2047,2047,2047,2047
648,649,648,649,650,651,652,652,652,652,652,653,653,653,653,655,654,654,653,653,655,655,656,656,656,657,657,658,658,658,658,659,660,660,660,660,661,661,660,660,659,657,656,656,655,656,655,654,658,659,659,659,659,659,659,660,661,661,661,661,661,662,662,661,662,663,664,664,665,665,669,671,672,672,673,673,672,672,671,670,668,667,667,666,666,666,666,667,668,668,669,671,671,673,673,674,676,677,679,681,681,681,681,682,683,683,683,684,684,685,685,685,686,693,695,695,695,696,698,700,702,702,703,703,704,704,705,705,707,709,710,711,712,713,715,716,717,718,719,719,719,1030,1029,1030,1030,1030,1029,1030,1029,1029,1030,1030,1031,1031,1031,1031,1031,1031,1030,1029,2047,2047,2047,2047,2047,2047,2047,2047,2047,2047,2047,2047,2047,2047,2047,2047,2047,2047,2047,2047,2047,2047,2047,2047,2047,2047,2047,2047,2047,2047,2047,2047,2047,2047,2047,2047,2047,2047,2047,2047,2047,2047,2047,2047,2047,678,677,676,676,675,674,673,672,671,669,668,668,667,666,665,664,663,663,662,661,660,659,658,657,657,657,657,657,657,656,656,656,656,656,656,655,655,655,654,654,653,653,653,653,653,653,654,653,653,653,653,654,654,654,654,654,655,655,655,656,656,656,656,656,656,656,656,641,641,641,640,640,639,640,640,640,640,640,639,640,638,638,637,637,637,637,636,636,636,635,635,634,633,633,632,632,631,630,630,629,629,629,629,628,628,628,627,627,627,627,626,626,625,625,626,625,625,624,623,623,622,622,622,622,621,621,621,621,621,621,620,620,620,620,620,619,619,619,619,619,619,619,619,619,619,619,620,620,620,619,620,619,619,620,619,619,619,620,620,620,620,620,620,620,619,620,620,620,620,620,621,621,621,620,620,621,621,621,621,622,622,622,622,622,622,623,623,623,623,623,624,623,623,623,624,623,623,623,623,624,624,625,625,625,625,626,626,626,626,626,626,627,627,627,628,628,628,628,628,628,628,628,627,627,627,627,627,627,626,626,626,626,625,625,625,625,625,625,625,625,625,626,626,626,626,626,626,627,627,627,628,628,628,628,629,628,629,629,629,629,629,629,629,629,629,628,628,628,628,629,629,629,630,630,631,632,633,633,633,633,633,634,634,634,635,636,637,637,637,638,638,639,640,641,641,642,643,644,645,645,646,647,649,651,653,655,658,660,661,662,662,662,663,663,678,677,677,677,676,676,675,675,674,674,673,673,673,673,674,673,673,673,673,673,673,673,673,673,673,673,673,673,673,673,673,674,674,675,675,676,677,677,678,678,679,679,679,680,680,681,681,688,690,690,691,834,834,835,834,835,835,835,835,834,835,835,834,835,835,835,834,834,834,834,834,834,833,833,833,833,833,834,833,834,834,833,833,833,833,834,834,833,834,834,834,834,834,834,835,834,835,834,834,834,835,835,835,836,837,837,837,837,837,837,838,838,839,2047,2047,2047,2047,2047,2047,2047,2047
648,648,650,649,650,651,652,651,651,651,652,652,652,652,653,654,653,653,653,653,654,654,655,655,656,657,657,657,657,657,657,658,659,659,660,660,661,661,661,660,659,658,656,656,655,655,654,654,656,657,657,656,657,657,657,659,660,661,661,661,661,661,661,661,662,663,664,664,665,666,669,670,672,672,673,672,672,672,671,670,668,667,666,666,666,666,666,666,667,668,669,670,671,672,673,674,675,677,680,681,682,682,682,682,683,683,683,683,684,684,685,685,686,693,695,695,695,696,698,699,701,702,702,703,703,704,705,705,707,709,710,711,711,713,714,716,717,718,719,719,1030,1030,1030,1030,1030,1030,1030,1030,1029,1029,1030,1030,1030,1030,1031,1031,1030,1030,1030,1029,2047,2047,2047,2047,2047,2047,2047,2047,2047,2047,2047,2047,2047,2047,2047,2047,2047,2047,2047,2047,2047,2047,2047,2047,2047,2047,2047,2047,2047,2047,2047,2047,2047,2047,2047,2047,2047,2047,2047,2047,2047,2047,2047,2047,678,677,676,676,675,674,673,672,671,669,669,668,668,667,666,664,664,662,662,662,661,660,658,658,657,657,657,656,656,656,656,656,656,656,656,655,655,654,654,654,654,653,653,653,653,653,653,653,653,653,654,653,653,653,654,653,654,654,654,655,655,656,656,656,656,656,656,656,641,641,641,640,639,639,640,640,639,639,640,639,639,638,638,637,637,637,636,636,635,635,635,634,633,633,632,632,631,631,630,630,629,629,628,628,628,628,628,627,627,626,626,626,625,625,625,626,625,625,624,623,623,622,622,622,622,621,621,621,621,621,621,620,620,620,620,620,619,619,619,619,618,618,619,619,619,619,619,619,619,619,619,619,619,619,619,619,619,619,619,619,619,619,619,619,620,619,620,619,619,620,619,620,620,620,620,619,620,620,621,621,621,621,622,622,622,622,622,623,623,623,623,623,623,623,623,624,623,623,623,623,624,624,624,625,624,625,625,625,625,626,626,626,627,626,627,627,628,627,628,627,628,628,627,627,627,627,627,627,626,626,626,626,626,625,625,625,625,625,625,625,625,625,625,625,625,626,626,626,626,627,627,627,628,628,628,629,628,629,629,629,629,629,629,629,629,629,628,628,628,628,628,629,629,630,630,631,632,632,633,633,633,633,634,634,634,634,635,636,637,637,638,638,639,639,641,641,642,643,644,644,645,646,647,649,650,652,654,658,661,661,662,662,662,663,663,677,676,677,676,675,675,674,675,674,674,673,673,673,673,673,673,673,673,673,673,673,673,673,673,672,673,673,673,673,673,673,673,673,674,675,676,676,677,678,678,678,678,679,680,680,681,681,688,689,689,690,691,836,834,834,834,834,835,834,834,834,834,834,833,835,835,834,834,833,834,834,833,833,833,833,833,833,834,833,833,833,833,833,833,833,833,834,833,834,834,834,834,834,834,834,834,835,834,834,834,835,835,835,835,836,836,837,837,837,837,837,838,838,2047,2047,2047,2047,2047,2047,2047,2047
650,650,649,649,649,650,651,651,650,651,651,652,652,652,652,654,654,653,653,653,654,654,654,655,656,657,657,657,657,657,657,658,658,659,660,660,660,660,661,660,659,657,654,655,654,654,654,653,655,657,657,656,657,657,657,658,659,660,660,661,661,661,661,661,661,662,663,664,664,665,668,669,671,672,673,672,672,672,671,670,668,666,666,665,665,666,666,666,667,668,668,669,670,672,673,674,675,677,679,680,681,681,681,682,683,683,683,683,684,684,685,685,686,695,694,695,695,696,697,699,701,702,702,703,704,704,705,705,707,709,710,711,711,713,714,715,716,717,718,1031,1030,1030,1030,1031,1030,1030,1029,1030,1029,1029,1030,1029,1030,1030,1030,1030,1030,1029,1029,1029,1028,2047,2047,2047,2047,2047,2047,2047,2047,2047,2047,2047,2047,2047,2047,2047,2047,2047,2047,2047,2047,2047,2047,2047,2047,2047,2047,2047,2047,2047,2047,2047,2047,2047,2047,2047,2047,2047,2047,2047,2047,2047,2047,2047,677,676,675,675,675,674,673,672,670,669,668,667,667,666,665,664,663,662,662,661,661,659,658,658,657,656,656,656,656,656,656,655,655,655,655,655,654,654,654,653,653,653,653,653,653,653,653,653,653,653,653,653,653,653,653,653,654,654,655,655,655,656,656,656,656,656,656,656,642,641,641,640,640,639,639,639,639,639,639,638,638,638,638,637,637,637,636,635,634,635,634,634,633,633,632,632,631,630,630,629,629,629,628,628,628,628,627,627,626,626,626,625,625,625,625,625,625,625,624,623,623,622,622,621,621,621,621,621,621,620,620,620,620,620,619,619,619,619,618,618,618,618,618,618,618,619,619,619,619,619,619,619,619,618,619,618,618,618,618,619,619,619,619,619,619,619,619,619,619,619,618,619,619,619,619,619,620,620,620,621,621,621,622,622,622,622,622,622,622,623,622,623,622,623,623,623,623,623,623,623,623,623,624,624,624,625,625,625,625,626,626,626,626,626,626,627,627,627,627,626,627,627,627,626,626,626,626,626,626,626,626,626,626,625,625,625,625,625,625,625,625,625,625,625,625,625,625,625,626,626,626,627,627,628,628,629,628,629,629,629,629,629,628,628,628,628,628,628,628,628,628,629,629,630,630,631,632,632,633,633,633,633,634,634,634,634,635,636,637,637,638,638,638,639,640,641,642,643,644,644,645,645,646,647,648,649,649,661,661,661,662,662,662,663,663,676,675,677,676,675,674,674,674,674,674,673,673,673,673,673,673,673,672,672,672,671,672,672,672,672,672,672,673,672,672,673,673,673,674,674,675,675,676,677,678,678,678,678,679,679,680,680,687,688,689,690,691,690,834,834,834,834,835,834,834,834,834,833,833,833,834,834,833,833,832,833,833,833,833,833,833,833,834,833,833,832,833,832,833,833,833,833,833,834,834,834,834,834,834,834,834,834,833,834,834,835,834,834,834,834,835,836,837,836,837,837,837,838,2047,2047,2047,2047,2047,2047,2047,2047
651,650,650,649,649,650,651,650,650,650,650,651,651,651,651,653,653,653,653,653,653,653,653,654,655,656,657,657,657,657,657,657,658,659,659,659,660,660,660,660,658,657,655,655,654,654,654,654,658,659,659,661,661,661,661,662,662,663,664,664,664,664,664,664,665,666,666,666,666,668,669,669,669,671,672,671,671,670,670,669,666,666,665,665,665,665,666,667,668,670,671,674,675,677,677,679,680,680,681,681,681,681,681,682,683,683,683,684,685,686,687,688,690,693,693,695,695,695,696,697,698,700,700,701,701,702,703,704,705,706,707,708,709,710,711,712,712,713,1033,1030,1030,1030,2047,1031,1031,1030,1029,1029,1029,1029,1029,1029,1029,1029,1029,1029,1029,1030,1030,1030,1030,1030,1030,1031,1030,1031,2047,2047,2047,2047,2047,2047,2047,2047,2047,2047,2047,2047,2047,2047,2047,2047,2047,2047,2047,2047,2047,2047,2047,2047,2047,2047,2047,2047,2047,2047,2047,2047,2047,2047,2047,2047,2047,2047,2047,2047,678,677,677,676,676,675,673,672,671,670,670,669,668,667,667,666,665,665,664,663,662,661,660,660,659,659,658,657,657,657,656,656,656,656,656,656,655,655,654,654,654,653,653,653,653,654,653,654,654,653,653,654,654,655,656,655,655,656,656,656,656,656,656,656,657,656,656,656,655,643,643,642,641,641,641,640,640,640,640,639,640,639,640,639,639,637,639,637,637,637,636,635,634,634,634,633,633,632,632,631,631,630,629,629,629,628,628,628,628,627,627,626,626,626,626,626,625,625,625,625,624,624,623,623,622,622,622,622,621,621,621,621,621,620,620,619,619,619,618,619,619,619,619,619,619,619,619,619,618,618,618,618,618,618,618,618,619,619,619,619,619,619,619,619,619,619,619,619,619,619,619,619,619,618,619,619,619,620,620,620,621,621,621,621,622,622,622,622,622,622,622,622,622,622,622,622,622,622,622,622,622,622,622,623,623,623,623,623,624,624,625,625,625,625,625,625,626,625,626,626,626,626,626,626,626,626,626,626,626,626,625,625,626,625,625,625,625,625,625,625,625,625,625,625,625,625,625,625,625,625,625,626,626,626,626,627,627,628,628,628,628,628,628,628,628,629,628,628,628,628,628,628,628,628,629,629,630,631,632,633,633,634,634,634,635,635,636,636,636,637,637,637,638,640,640,641,642,642,643,644,645,646,646,646,646,647,647,659,660,661,662,662,663,663,663,678,677,677,677,677,676,676,675,674,674,674,673,674,674,674,674,674,674,674,674,674,674,673,674,674,673,673,673,673,674,674,674,674,675,675,676,677,678,678,679,679,679,679,679,2047,689,689,694,694,693,692,692,834,834,835,834,834,834,834,834,834,834,834,834,834,833,833,832,833,833,832,832,833,833,833,833,833,832,832,833,832,832,832,833,833,833,833,833,833,833,833,833,834,834,834,834,834,834,834,834,834,834,834,834,835,836,836,837,837,838,838,2047,2047,2047,2047,2047,2047,2047,2047
650,650,651,650,651,652,652,652,652,652,652,653,654,654,655,655,656,656,656,656,656,656,656,657,657,657,658,659,658,658,658,659,659,659,658,657,656,656,655,655,654,654,653,654,655,655,656,657,658,658,659,660,661,661,661,662,663,663,664,664,664,664,664,664,664,665,665,665,666,668,668,669,669,670,671,671,671,670,670,668,666,666,665,665,665,665,665,666,668,670,672,674,675,676,677,679,680,680,681,681,681,681,681,682,682,682,683,683,684,686,688,689,692,693,693,694,695,695,696,697,698,700,700,701,702,702,703,703,704,705,707,708,709,711,712,713,713,1031,1031,1030,1030,1030,1030,1031,1031,1029,1029,1029,1029,1029,1029,1029,1029,1029,1029,1029,1030,1030,1030,1030,1030,1030,1030,1031,1030,1030,2047,2047,2047,2047,2047,2047,2047,2047,2047,2047,2047,2047,2047,2047,2047,2047,2047,2047,2047,2047,2047,2047,2047,2047,2047,2047,2047,2047,2047,2047,2047,2047,2047,2047,2047,2047,2047,2047,2047,2047,678,677,677,676,676,675,673,672,670,670,669,668,667,667,666,665,665,665,664,663,662,661,660,660,659,659,658,657,657,656,656,656,656,656,656,655,654,654,653,653,653,653,653,652,653,653,653,653,653,653,653,653,653,654,655,654,654,656,656,656,656,656,656,656,656,656,656,655,655,645,644,642,641,641,641,640,640,640,639,639,640,639,639,639,639,638,638,638,637,636,636,635,634,634,633,633,632,632,631,631,630,630,629,629,629,628,628,628,628,627,627,626,626,626,626,626,625,625,625,624,623,623,623,622,622,622,622,621,621,621,621,621,620,620,619,619,619,618,618,618,618,618,618,618,618,618,618,618,618,618,618,618,618,618,618,618,618,618,618,619,619,619,619,619,619,619,619,618,618,618,618,618,618,618,618,618,618,618,619,619,620,620,621,621,621,621,621,622,622,622,622,622,622,622,622,622,622,622,622,622,622,622,622,622,622,623,623,623,623,623,624,624,624,625,625,625,625,625,625,625,625,625,626,626,626,626,626,626,626,625,625,625,625,625,625,625,625,625,625,625,625,625,625,625,625,625,625,625,625,625,625,625,625,626,626,627,627,628,628,628,627,628,628,628,628,628,628,628,628,628,628,628,628,628,629,629,630,632,632,633,634,634,634,634,634,635,635,635,636,636,636,637,638,639,640,641,642,642,644,644,645,646,646,646,646,646,646,660,661,662,662,662,663,662,663,678,678,678,677,677,676,675,675,674,674,674,673,674,673,674,673,673,673,673,673,673,673,673,673,673,673,673,673,673,673,673,674,674,674,674,675,676,677,678,678,678,678,678,678,679,689,689,690,690,691,690,691,832,833,834,833,833,834,833,834,834,834,834,834,833,833,833,833,833,832,832,832,833,832,833,833,833,832,832,833,832,832,833,833,833,833,833,833,833,833,833,833,833,833,834,834,833,834,834,834,834,834,834,834,835,835,835,836,837,837,838,2047,2047,2047,2047,2047,2047,2047,2047
647,649,649,649,650,651,651,652,652,652,652,653,654,654,654,655,656,656,656,656,656,656,656,657,657,657,658,659,658,658,658,659,659,659,658,657,656,655,654,654,653,653,653,654,654,655,656,657,658,658,658,660,661,661,662,662,662,662,664,664,664,664,664,664,664,665,665,665,665,667,668,668,669,670,671,670,671,670,670,668,666,666,665,665,665,665,665,666,667,670,672,674,674,676,677,679,680,680,681,681,681,681,681,681,682,682,682,682,683,685,689,689,692,693,693,695,695,695,696,697,698,700,700,702,702,703,704,704,705,706,707,708,709,710,711,713,713,1030,1029,1030,1029,1030,1030,1030,1031,1030,1030,1029,1029,1029,1030,1029,1029,1030,1030,1030,1030,1030,1030,1030,1030,1030,1030,1030,1030,1030,2047,2047,2047,2047,2047,2047,2047,2047,2047,2047,2047,2047,2047,2047,2047,2047,2047,2047,2047,2047,2047,2047,2047,2047,2047,2047,2047,2047,2047,2047,2047,2047,2047,2047,2047,2047,2047,2047,2047,2047,678,677,676,676,676,674,672,671,670,669,669,668,667,666,665,665,665,664,663,662,662,661,660,660,659,659,658,657,657,656,656,656,656,656,655,655,654,654,653,653,653,653,652,652,652,653,653,653,653,653,653,653,653,653,655,654,654,655,655,656,655,656,656,656,656,655,655,653,648,648,645,643,642,641,641,640,640,640,640,640,640,639,639,638,638,638,638,638,637,636,636,635,634,634,633,633,632,632,631,630,630,629,629,629,628,628,628,628,627,627,626,626,625,626,626,625,625,625,624,624,623,623,622,622,622,621,621,621,621,621,621,621,620,620,620,619,619,618,618,618,618,618,618,618,618,618,618,618,618,618,618,618,618,618,617,618,618,618,618,619,619,619,619,618,618,618,618,618,618,618,618,618,618,618,618,618,618,618,618,619,619,619,620,620,621,621,621,621,621,621,621,621,621,621,621,621,621,621,622,622,622,622,622,622,622,623,622,622,623,623,623,623,624,624,624,624,624,625,625,625,625,625,625,626,626,626,625,625,625,625,625,625,625,625,625,625,625,625,625,624,624,624,624,624,624,624,624,624,624,624,625,625,625,626,626,626,627,627,627,627,627,627,628,628,628,628,628,628,628,628,628,627,628,628,628,629,630,632,632,633,634,634,634,634,634,635,635,635,635,636,636,637,638,639,640,641,642,642,644,644,645,645,646,646,646,646,646,646,662,662,662,663,663,663,663,678,678,677,677,676,676,675,675,674,674,674,673,674,673,673,673,673,673,673,673,673,673,673,673,673,673,673,673,673,673,673,673,674,674,674,675,675,676,677,677,678,677,678,678,679,679,688,689,689,690,689,690,690,834,834,834,833,833,833,834,834,834,833,833,833,833,833,832,832,832,832,833,832,832,833,833,832,832,832,832,832,831,831,832,832,833,833,832,833,833,833,832,833,833,833,834,833,834,833,833,833,833,833,834,834,834,834,835,837,837,838,2047,2047,2047,2047,2047,2047,2047,2047
645,647,648,648,649,650,651,651,651,651,652,653,654,654,654,655,656,656,656,656,656,656,656,656,657,657,658,658,658,658,658,658,658,658,657,656,656,654,654,654,653,653,653,653,654,655,656,656,658,659,659,660,661,661,662,662,662,662,664,663,664,664,664,664,664,665,665,665,664,667,668,668,669,670,671,670,671,670,669,668,667,666,665,665,665,665,665,665,666,671,672,674,675,675,677,678,679,680,680,680,681,681,681,681,681,681,682,682,682,685,689,689,692,692,693,695,695,696,697,697,698,699,700,702,702,703,704,704,705,706,707,708,709,710,710,1032,1030,1030,1029,1029,1029,1030,1030,1030,1031,1030,1030,1030,1030,1030,1030,1030,1030,1030,1030,1030,1031,1031,1031,1031,1030,1030,1030,1031,1030,2047,2047,2047,2047,2047,2047,2047,2047,2047,2047,2047,2047,2047,2047,2047,2047,2047,2047,2047,2047,2047,2047,2047,2047,2047,2047,2047,2047,2047,2047,2047,2047,2047,2047,2047,2047,2047,2047,2047,2047,2047,677,677,676,676,675,672,671,670,669,669,668,668,667,666,665,665,664,664,663,662,661,661,660,660,659,658,657,657,656,656,656,655,655,655,655,654,653,653,653,653,653,652,652,652,652,653,652,653,653,653,653,653,653,653,654,654,654,654,655,656,656,655,656,656,656,655,655,653,649,647,646,644,643,642,641,640,640,640,639,640,640,639,639,638,638,637,637,637,637,636,636,635,634,634,633,633,632,631,630,630,629,629,629,628,628,628,628,627,627,626,626,625,625,626,625,625,625,624,624,624,623,623,622,622,622,621,621,621,621,621,621,620,620,620,619,619,619,618,618,618,618,618,618,618,618,618,618,618,618,618,618,618,618,617,617,617,618,618,618,618,619,618,618,618,618,618,618,618,618,618,618,618,617,617,618,618,618,618,618,618,619,619,619,619,620,620,621,621,621,621,621,621,621,621,621,621,621,621,621,621,622,622,622,622,622,622,622,622,622,622,622,622,623,623,623,623,623,624,624,624,624,624,625,625,625,625,625,625,625,625,625,625,625,625,625,625,625,625,625,624,624,624,624,624,624,624,623,624,624,624,624,625,625,626,626,626,626,627,627,627,627,627,628,628,628,628,628,628,628,628,627,627,628,628,628,628,629,631,632,633,633,633,634,634,634,634,634,635,635,636,635,637,637,639,639,641,641,642,644,644,645,645,646,646,646,646,646,646,662,662,662,662,662,662,662,678,677,677,677,676,675,675,674,674,674,674,673,673,673,673,673,673,673,673,673,673,673,673,673,673,673,673,673,673,673,673,673,673,674,674,674,675,676,677,677,677,677,677,678,678,678,687,688,688,689,688,688,833,834,834,834,833,834,833,834,834,833,833,833,833,833,832,832,832,832,832,832,832,832,833,833,832,832,831,832,831,831,831,831,832,832,832,832,832,832,832,832,833,833,833,834,833,834,833,833,833,833,833,833,834,834,834,835,837,836,837,2047,2047,2047,2047,2047,2047,2047,2047
645,646,648,648,649,649,649,651,651,651,651,652,653,653,653,654,655,655,655,655,655,656,656,656,656,656,657,657,657,657,658,658,658,658,657,656,655,654,654,653,653,653,653,653,654,654,655,656,658,659,659,660,661,661,662,662,662,662,663,663,664,664,664,664,664,665,665,664,664,667,668,668,669,670,670,670,670,669,669,667,666,665,665,665,665,665,665,665,666,670,671,673,674,675,677,679,679,680,680,680,681,681,681,681,681,681,682,682,683,685,689,689,692,692,693,694,694,695,696,697,698,699,700,701,702,703,704,705,705,706,707,708,709,710,710,1031,1031,1030,1029,1029,1029,1030,1029,1030,1031,1030,1030,1029,1030,1030,1031,1030,1030,1030,1030,1030,1031,1030,1030,1030,1030,1030,1030,1030,1029,2047,2047,2047,2047,2047,2047,2047,2047,2047,2047,2047,2047,2047,2047,2047,2047,2047,2047,2047,2047,2047,2047,2047,2047,2047,2047,2047,2047,2047,2047,2047,2047,2047,2047,2047,2047,2047,2047,2047,2047,2047,677,676,677,676,675,671,671,670,669,669,668,667,667,665,665,664,663,663,662,661,661,661,660,659,659,657,657,657,656,656,655,655,654,654,654,654,653,653,653,653,652,652,652,652,652,652,652,652,652,652,652,653,652,653,654,654,654,655,656,655,656,655,655,655,656,655,655,652,649,646,646,644,643,642,641,641,640,640,639,639,639,639,638,638,637,637,637,637,636,636,635,634,633,633,633,632,632,631,630,630,629,629,629,628,628,628,628,627,626,626,625,625,625,625,625,625,625,624,624,623,623,623,622,622,622,621,621,621,621,621,620,620,619,619,619,618,618,618,618,618,618,618,618,618,618,618,618,618,618,617,618,618,617,617,617,617,618,618,618,618,618,618,618,618,618,618,618,618,617,618,618,617,617,617,617,618,618,617,617,618,618,618,618,618,619,620,620,620,621,621,621,621,621,621,621,621,621,621,621,621,621,621,621,622,622,622,622,622,622,622,622,622,622,622,623,622,623,624,623,624,623,624,625,625,625,625,625,625,625,625,625,625,625,625,625,625,625,625,624,624,624,623,623,623,622,622,622,623,623,623,623,624,625,625,625,626,626,626,626,627,626,627,627,628,627,628,628,627,628,627,627,627,627,627,627,628,629,630,631,632,633,633,634,634,634,634,634,634,635,636,636,636,637,638,638,639,641,642,644,645,645,646,646,646,646,646,646,646,663,663,662,662,662,662,679,678,677,677,677,676,675,674,674,674,674,674,673,673,673,673,673,673,673,673,673,673,673,672,673,673,672,672,672,672,672,672,673,673,673,674,674,675,675,676,676,676,676,677,677,677,678,686,687,687,687,687,687,687,834,834,834,834,834,833,833,833,833,833,833,832,832,831,831,831,831,831,831,831,831,832,832,832,832,831,831,831,831,830,830,831,831,832,831,832,832,832,832,833,833,833,834,833,834,833,833,833,833,833,833,834,834,834,835,836,836,837,2047,2047,2047,2047,2047,2047,2047,2047
644,645,647,648,648,649,649,650,650,650,651,652,653,653,653,653,654,654,655,655,655,655,656,656,656,656,657,657,657,657,657,657,657,657,656,656,655,654,653,653,653,653,652,653,653,653,654,656,658,659,660,660,661,662,662,662,662,662,663,663,663,664,663,664,664,665,665,665,664,667,668,668,669,669,670,669,669,669,668,666,665,665,664,664,665,665,665,665,666,668,671,673,673,674,677,679,679,680,680,680,680,681,681,681,681,681,682,683,683,686,689,690,692,692,693,694,694,695,696,697,698,699,700,701,702,703,704,705,705,706,707,708,709,711,714,717,717,717,718,1030,1029,1029,1029,1029,1030,1029,1029,1029,1030,1030,1030,1030,1030,1030,1030,1031,1031,1030,1030,1030,1030,1031,1030,1030,1030,2047,2047,2047,2047,2047,2047,2047,2047,2047,2047,2047,2047,2047,2047,2047,2047,2047,2047,2047,2047,2047,2047,2047,2047,2047,2047,2047,2047,2047,2047,2047,2047,2047,2047,2047,2047,2047,2047,2047,2047,676,677,676,676,675,671,670,670,669,669,668,668,667,666,665,664,663,662,662,661,661,660,660,659,658,658,657,656,656,656,655,655,654,653,654,653,653,653,653,653,653,652,652,652,652,652,652,651,652,652,652,652,652,652,653,654,653,654,654,655,655,655,654,656,656,656,655,654,653,651,651,646,644,643,642,641,640,640,639,639,639,639,639,638,638,637,637,637,637,636,636,635,634,633,633,632,632,631,630,630,629,629,629,628,628,628,628,627,627,626,626,625,625,625,625,625,625,625,624,624,623,623,622,622,622,621,621,621,620,620,620,620,620,619,619,618,618,618,618,618,618,618,618,618,618,618,618,618,618,617,617,617,617,617,617,617,617,617,617,618,618,618,618,618,618,618,618,618,617,617,617,617,617,617,617,617,617,617,617,617,618,618,618,618,618,618,619,619,619,620,620,621,620,620,621,621,621,621,621,621,621,621,621,621,621,621,621,621,622,622,622,622,622,622,622,622,622,622,623,623,623,623,624,624,625,625,625,625,625,625,625,625,625,625,625,624,624,624,624,624,623,623,622,622,622,622,622,622,622,623,623,623,624,625,625,625,625,626,626,626,626,626,627,627,628,627,628,628,627,627,627,627,626,627,627,627,627,628,630,631,632,633,633,634,634,634,634,634,634,634,635,635,636,637,638,638,639,640,642,644,645,644,645,646,646,646,646,645,645,663,663,662,662,662,662,679,678,678,677,677,676,675,674,674,674,674,673,673,673,673,673,673,673,672,672,672,672,672,672,672,672,672,672,671,671,672,672,672,673,673,673,674,674,674,675,675,675,676,676,676,677,677,685,686,687,686,686,686,686,833,834,833,833,833,833,833,833,832,832,832,832,832,831,831,831,831,831,830,831,830,831,832,832,832,832,831,831,831,830,830,831,831,831,831,831,832,832,832,833,833,833,833,833,833,833,833,833,833,833,833,834,834,834,834,835,835,836,2047,2047,2047,2047,2047,2047,2047,2047
644,645,646,647,648,648,649,649,649,650,650,652,653,653,653,653,653,654,654,654,654,655,655,656,656,656,656,657,657,657,657,657,657,656,656,655,654,654,653,653,652,652,652,652,652,653,654,654,658,660,660,661,661,661,662,663,663,663,663,663,664,664,664,664,664,665,665,665,665,666,667,668,668,669,670,669,669,668,667,665,664,664,664,664,664,665,665,666,667,668,670,671,673,674,677,679,679,680,680,680,680,680,680,680,680,680,681,682,682,685,689,690,692,692,693,694,694,695,696,697,698,699,700,702,702,703,704,705,706,707,708,708,710,712,716,717,717,718,1029,1030,1029,1029,1029,1029,1030,1029,1029,1029,1030,1031,1030,1030,1030,1030,1030,1031,1031,1030,1031,1031,1031,1031,1031,1031,1030,1032,2047,2047,2047,2047,2047,2047,2047,2047,2047,2047,2047,2047,2047,2047,2047,2047,2047,2047,2047,2047,2047,2047,2047,2047,2047,2047,2047,2047,2047,2047,2047,2047,2047,2047,2047,2047,2047,2047,2047,676,676,676,673,672,671,670,670,669,669,668,668,666,665,663,662,662,661,661,661,660,660,659,658,657,657,656,656,656,655,655,653,653,653,653,653,653,653,653,653,654,653,653,653,653,653,653,653,653,653,653,653,653,653,653,653,653,653,654,655,655,655,655,656,656,657,657,657,657,657,655,655,653,651,649,647,646,644,643,641,641,641,641,640,640,640,640,640,640,639,639,637,637,636,635,635,634,633,633,633,632,632,632,632,631,631,630,629,629,628,628,628,627,627,627,627,627,626,626,625,625,625,623,623,623,622,622,622,622,622,622,621,621,621,621,620,620,619,619,618,618,618,618,618,618,618,618,618,618,618,618,618,618,617,617,617,617,618,618,618,618,618,618,618,618,618,618,618,618,617,618,618,617,617,617,617,617,617,617,617,617,617,617,617,617,617,617,618,618,618,618,619,619,620,620,620,620,620,620,620,620,620,620,620,621,621,621,621,621,621,621,621,621,621,622,622,622,622,622,622,622,622,623,623,623,623,623,624,624,624,624,624,624,624,624,624,624,624,623,623,623,623,623,622,622,622,622,622,622,622,622,622,622,623,623,624,624,624,624,625,625,625,625,626,627,627,627,627,627,628,627,627,627,627,627,627,627,627,627,628,628,629,630,631,632,633,633,634,634,635,635,635,636,636,637,637,637,637,638,639,641,642,643,644,644,645,645,646,646,646,645,645,663,664,663,662,662,663,679,678,677,677,676,676,675,675,674,674,674,674,674,674,673,673,673,673,673,673,673,673,673,673,673,673,673,673,673,673,673,673,673,674,674,674,675,675,676,677,677,677,678,678,679,678,685,687,687,688,689,689,689,833,834,834,833,833,833,833,832,832,831,831,831,831,830,830,830,830,830,830,831,831,831,831,831,831,831,830,830,829,829,829,829,829,830,830,830,831,831,831,831,831,831,831,830,832,832,832,832,833,833,833,834,834,834,835,836,2047,2047,2047,2047,2047,2047,2047,2047
644,644,645,647,648,648,648,649,649,649,649,650,650,651,652,652,652,652,653,653,653,653,653,654,654,655,655,656,656,656,656,655,655,653,653,652,652,651,651,650,650,650,650,650,651,652,653,658,659,660,660,660,661,661,661,661,661,662,662,662,662,663,662,663,664,664,664,664,664,664,665,665,666,667,668,668,667,667,665,664,662,662,662,663,663,664,665,665,665,667,672,674,675,676,678,678,679,680,680,680,680,680,680,681,680,681,682,683,684,686,688,689,690,691,692,692,693,693,695,696,697,697,698,700,700,701,702,704,704,705,706,706,708,710,715,715,716,716,716,715,1028,1028,1029,1030,1030,1030,1030,1030,1031,1031,1031,1031,1031,1031,1031,1031,1031,1030,1030,1030,1030,1030,1030,2047,2047,2047,2047,2047,2047,2047,2047,2047,2047,2047,2047,2047,2047,2047,2047,2047,2047,2047,2047,2047,2047,2047,2047,2047,2047,2047,2047,2047,2047,2047,2047,2047,2047,2047,2047,2047,2047,2047,2047,2047,2047,2047,2047,680,680,679,677,676,675,674,672,671,670,669,668,666,666,666,665,664,664,663,661,661,660,660,659,658,657,657,657,656,656,655,655,654,654,653,653,653,653,653,653,653,653,653,653,653,653,653,653,653,653,653,653,653,653,653,653,653,654,655,655,655,656,656,656,656,656,656,656,655,655,654,651,649,647,646,644,643,641,641,641,640,640,640,640,640,640,639,639,638,637,636,636,635,635,634,633,633,632,632,632,632,631,631,630,630,629,629,628,628,628,627,626,627,627,626,626,626,625,625,625,623,623,623,622,622,622,622,622,621,621,621,621,620,620,619,619,618,618,618,618,618,618,618,618,618,618,618,618,617,617,617,617,617,617,617,617,618,618,618,618,618,618,618,618,618,618,618,617,618,618,617,617,617,617,617,617,617,617,617,617,617,617,617,617,617,618,618,618,618,619,619,619,620,620,620,620,620,620,620,620,620,620,620,621,620,621,621,621,621,621,621,621,621,621,622,622,622,622,622,622,622,622,623,623,623,623,623,624,624,623,624,624,624,624,623,623,623,623,623,622,622,622,622,622,622,622,622,622,622,622,622,622,623,623,623,623,624,624,625,625,625,626,627,627,627,627,627,628,628,627,627,627,627,626,626,626,627,628,627,629,629,630,632,633,633,634,634,635,635,635,635,636,637,637,637,637,638,639,641,642,642,644,644,645,645,646,646,646,645,645,663,663,663,662,662,662,679,678,677,677,676,676,675,674,674,674,674,674,674,674,673,673,673,673,673,673,673,673,673,673,673,672,672,672,673,673,673,673,673,674,674,674,675,675,676,676,677,677,677,678,679,679,683,686,687,688,688,688,688,688,833,833,832,833,833,832,831,831,831,831,831,831,830,830,830,830,830,830,830,830,830,830,830,831,830,830,830,829,829,829,829,829,830,830,830,831,831,831,831,831,830,830,830,832,832,832,833,833,833,833,834,834,834,835,836,2047,2047,2047,2047,2047,2047,2047,2047
644,644,645,645,647,648,648,648,648,649,649,649,650,651,651,651,652,652,652,652,652,653,653,653,653,654,655,655,656,655,655,655,654,653,653,652,652,651,650,650,650,650,650,650,651,652,653,656,657,660,660,660,660,661,660,661,661,661,662,662,663,663,662,663,663,664,664,664,664,664,665,665,666,666,667,667,667,666,664,663,662,662,662,662,663,664,664,665,666,666,671,675,675,676,677,677,678,680,680,680,680,680,681,681,681,681,682,683,684,686,688,689,690,691,692,692,693,693,695,696,697,697,698,699,700,701,702,704,704,706,706,707,709,710,715,715,716,716,716,1029,1028,1028,1029,1029,1030,1029,1030,1030,1031,1031,1031,1031,1031,1031,1031,1031,1031,1030,1030,1030,1030,1030,1030,2047,2047,2047,2047,2047,2047,2047,2047,2047,2047,2047,2047,2047,2047,2047,2047,2047,2047,2047,2047,2047,2047,2047,2047,2047,2047,2047,2047,2047,2047,2047,2047,2047,2047,2047,2047,2047,2047,2047,2047,2047,2047,2047,2047,676,677,676,676,675,674,673,671,671,669,668,667,666,665,665,664,664,663,662,661,660,660,660,658,657,657,657,656,656,655,654,653,653,653,653,653,653,653,653,653,653,652,652,652,653,653,653,653,653,653,653,652,652,653,653,653,653,654,655,655,654,656,655,656,656,656,656,656,655,655,654,652,650,648,647,645,644,642,641,641,640,640,640,640,639,639,639,638,638,637,637,636,635,634,633,633,633,632,632,632,632,631,631,630,629,629,628,628,628,627,627,626,627,626,626,626,626,625,625,624,623,623,622,622,622,622,622,622,621,621,621,621,620,620,619,618,618,618,618,618,617,617,617,618,618,618,617,617,617,617,617,617,617,617,617,617,618,618,618,618,618,618,618,618,618,618,617,617,617,617,617,617,617,617,617,617,617,617,617,617,617,617,617,617,617,618,618,618,618,619,619,619,619,619,619,619,619,619,619,619,619,620,619,620,620,620,621,621,620,621,621,621,621,621,621,621,621,621,622,622,622,622,622,622,622,623,623,623,623,623,623,624,623,623,623,623,623,623,622,622,622,622,622,622,622,621,621,621,622,622,622,622,622,623,623,623,623,624,624,625,625,626,626,626,627,627,627,627,627,627,627,627,627,626,626,626,627,627,627,628,629,630,631,632,633,634,634,635,635,635,635,636,636,637,637,637,638,639,642,642,642,643,644,645,645,646,646,646,646,645,663,663,662,662,662,662,679,678,677,677,676,675,674,674,674,674,674,673,673,674,673,673,673,673,673,673,673,673,673,673,673,672,672,672,672,673,673,673,673,674,674,674,675,675,675,676,676,676,677,677,678,678,682,686,686,688,688,687,687,686,833,833,831,831,832,831,831,831,830,830,830,830,830,830,830,830,830,830,830,830,830,830,830,830,830,830,829,829,829,829,829,829,830,830,831,831,831,831,831,831,830,830,830,832,832,832,833,833,833,833,834,834,834,835,836,2047,2047,2047,2047,2047,2047,2047,2047
644,644,644,645,646,647,647,647,648,648,648,649,649,650,650,650,651,652,652,652,652,652,652,653,653,654,654,655,655,655,655,655,654,653,652,651,651,650,650,650,650,650,650,650,651,652,653,655,658,659,659,660,660,660,660,661,661,661,661,661,662,662,662,663,663,663,664,664,664,664,665,665,666,666,666,667,666,665,663,662,662,661,662,662,663,664,665,665,665,666,669,674,675,676,677,677,677,679,679,680,680,680,680,680,680,681,682,683,684,685,688,689,691,691,692,692,693,693,694,695,697,697,698,699,700,701,703,704,705,706,707,708,709,710,713,714,715,715,715,1030,1029,1028,1029,1030,1030,1030,1030,1030,1031,1031,1031,1031,1031,1031,1031,1031,1030,1030,1030,1029,1029,1030,1030,2047,2047,2047,2047,2047,2047,2047,2047,2047,2047,2047,2047,2047,2047,2047,2047,2047,2047,2047,2047,2047,2047,2047,2047,2047,2047,2047,2047,2047,2047,2047,2047,2047,2047,2047,2047,2047,2047,2047,2047,2047,2047,2047,2047,676,676,675,675,674,672,672,670,669,668,667,666,665,664,664,664,663,662,662,660,660,659,658,658,657,656,656,656,655,654,654,653,653,653,653,653,653,653,652,652,652,652,652,652,652,652,653,653,652,653,652,652,652,652,652,652,653,653,654,654,654,654,655,655,656,655,656,656,655,654,653,652,650,648,647,644,644,641,641,640,640,640,640,640,639,639,638,638,637,637,636,636,635,634,633,633,633,632,632,632,631,630,630,629,629,628,628,628,628,627,627,626,627,627,626,626,626,625,625,624,623,623,622,622,622,622,622,621,621,621,621,620,620,620,619,618,618,618,618,618,617,617,617,617,617,617,617,617,617,617,617,617,617,617,617,617,617,618,618,618,618,618,618,617,618,618,617,617,617,617,617,617,617,616,617,616,616,616,616,616,616,617,617,617,617,617,618,618,618,618,618,618,618,618,618,618,618,618,618,618,619,619,619,619,619,620,620,620,620,620,621,620,620,620,621,621,621,621,621,621,622,622,622,622,622,622,622,623,623,623,623,623,623,623,623,622,622,622,622,622,622,622,622,622,621,621,621,621,621,621,622,622,622,622,622,623,623,624,624,625,625,625,626,626,626,627,627,627,627,626,626,626,626,626,626,626,626,627,627,627,628,630,631,632,633,634,634,634,634,635,635,635,636,636,637,637,638,639,642,642,642,643,644,644,645,646,646,646,646,646,663,663,662,662,662,662,678,677,677,676,676,675,674,674,674,674,674,673,673,673,673,673,673,673,673,673,672,672,672,672,672,672,672,672,672,672,672,673,673,673,674,674,674,674,675,675,675,675,676,676,677,677,685,686,686,687,686,687,686,685,682,830,830,831,831,831,831,831,830,830,830,830,830,830,830,830,830,829,830,829,830,829,828,829,829,829,829,829,829,829,829,829,830,830,831,831,831,831,831,830,830,830,830,830,832,832,832,833,833,833,834,834,834,835,836,2047,2047,2047,2047,2047,2047,2047,2047
643,644,644,644,645,646,647,646,647,648,648,648,648,649,649,650,651,651,652,652,651,652,652,652,653,653,654,654,655,654,654,654,654,653,652,651,650,650,649,649,649,650,649,650,651,652,653,656,657,659,659,658,660,660,660,660,661,662,661,661,662,662,662,663,663,663,663,664,664,664,665,665,666,666,666,666,666,664,663,662,661,661,661,662,662,663,664,665,665,666,667,675,675,676,677,677,678,679,679,680,679,680,680,680,680,681,682,683,684,686,687,689,690,691,692,692,693,693,694,695,696,696,697,698,699,700,702,704,705,706,707,708,709,710,712,713,714,714,1031,1030,1029,1029,1030,1030,1030,1030,1030,1031,1031,1031,1031,1031,1031,1031,1031,1031,1030,1030,1030,1029,1030,1030,1030,2047,2047,2047,2047,2047,2047,2047,2047,2047,2047,2047,2047,2047,2047,2047,2047,2047,2047,2047,2047,2047,2047,2047,2047,2047,2047,2047,2047,2047,2047,2047,2047,2047,2047,2047,2047,2047,2047,2047,2047,2047,2047,2047,675,675,675,674,673,673,673,671,669,669,668,666,665,664,664,663,663,662,662,661,660,659,659,658,657,657,656,656,655,654,654,653,653,653,653,652,652,652,652,652,652,652,652,652,652,652,652,652,652,652,652,652,652,652,652,652,652,653,653,653,653,654,654,655,656,656,655,657,655,656,654,653,652,650,648,647,644,643,642,641,641,641,640,640,640,640,638,638,637,637,637,636,636,635,634,633,633,632,632,632,631,631,630,630,629,628,628,628,628,627,627,626,626,627,626,626,626,626,625,625,624,623,623,622,622,622,622,621,621,621,621,620,620,620,619,618,618,617,617,618,617,617,617,617,617,617,617,617,617,617,617,617,617,617,617,617,617,617,617,618,618,618,618,618,617,618,617,617,617,617,616,617,617,616,616,616,615,615,615,615,615,616,616,616,617,617,617,618,617,618,618,618,618,618,618,618,618,618,618,618,618,618,618,618,618,618,619,619,619,619,619,620,620,620,619,620,620,621,621,621,621,621,621,621,622,622,622,622,622,622,622,622,623,623,622,622,622,622,622,622,622,622,622,622,622,621,621,621,621,621,621,621,621,621,622,622,622,623,623,623,624,625,625,625,626,626,626,626,626,626,626,626,626,626,626,626,626,626,626,626,627,627,630,632,633,634,634,634,634,634,635,635,635,636,636,637,637,638,639,641,642,642,642,643,644,644,645,646,646,646,646,662,663,662,662,662,663,678,677,677,676,676,675,674,674,674,674,674,673,673,673,673,673,673,673,673,672,672,671,671,671,671,671,671,672,672,671,672,672,672,673,673,673,674,674,674,675,675,675,675,675,677,677,683,684,684,686,686,686,685,684,682,829,829,830,830,830,830,831,830,830,830,830,829,830,830,829,829,829,829,829,829,829,828,829,829,829,829,828,828,829,829,829,829,830,831,831,831,830,830,830,830,830,830,831,831,832,832,833,833,833,833,834,834,834,835,2047,2047,2047,2047,2047,2047,2047,2047
643,643,643,643,645,645,646,646,647,647,648,648,648,649,649,650,650,651,651,651,651,652,652,652,653,653,653,654,654,654,654,654,653,653,652,651,650,649,649,649,649,649,649,649,651,652,653,655,656,657,657,657,658,658,659,660,660,662,661,661,662,662,662,663,663,663,663,664,664,664,665,665,666,665,665,666,665,664,663,662,661,661,661,661,662,663,664,665,665,666,666,669,675,676,677,677,677,678,678,679,679,679,680,680,680,680,682,683,684,685,687,688,690,691,692,692,693,693,694,694,696,696,697,698,699,700,703,705,706,707,707,708,709,710,712,713,713,1031,1031,1031,1030,1029,1030,1030,1030,1029,1030,1030,1031,1031,1031,1031,1031,1031,1030,1030,1029,1029,1029,1029,1029,1029,1029,1029,2047,2047,2047,2047,2047,2047,2047,2047,2047,2047,2047,2047,2047,2047,2047,2047,2047,2047,2047,2047,2047,2047,2047,2047,2047,2047,2047,2047,2047,2047,2047,2047,2047,2047,2047,2047,2047,2047,2047,2047,2047,2047,676,675,675,675,674,673,672,671,669,668,667,665,665,664,663,663,662,662,661,660,659,659,658,657,657,656,656,656,655,654,654,653,653,652,652,652,652,652,652,652,652,652,652,652,652,652,652,652,652,652,652,652,652,652,652,652,652,652,653,653,653,653,654,654,655,655,655,656,656,654,653,653,652,650,648,646,644,643,642,641,641,641,640,640,640,640,638,637,637,637,637,636,636,635,634,633,633,632,632,632,631,631,630,629,629,628,628,628,627,627,626,626,626,626,626,626,626,626,625,625,624,623,623,622,622,622,622,621,621,621,620,620,619,619,619,618,618,617,617,617,617,617,617,617,617,617,617,617,617,617,617,617,617,617,617,617,617,617,617,617,618,617,617,617,617,617,617,617,617,616,616,616,616,616,615,615,615,614,615,615,615,615,615,616,616,617,617,617,617,617,618,618,618,618,618,618,618,618,618,618,618,618,618,618,618,618,619,618,619,618,619,619,619,619,619,620,620,620,620,621,621,621,621,621,621,622,622,622,622,622,622,622,622,622,622,622,622,622,622,622,622,622,621,621,621,621,621,621,621,621,621,621,621,621,622,622,622,622,622,623,624,624,625,625,625,625,626,626,626,626,626,626,626,626,626,626,626,626,626,626,626,627,628,632,633,633,634,634,634,634,634,635,635,636,636,637,637,638,639,641,642,642,643,643,644,644,645,646,646,646,646,646,664,663,663,663,663,664,677,676,676,676,675,674,674,674,674,673,673,673,673,673,673,672,672,672,671,671,671,670,671,671,671,671,671,671,671,671,671,671,672,672,673,673,673,674,674,674,674,674,675,676,676,677,683,682,685,685,685,684,684,683,829,829,829,830,830,830,831,830,830,829,829,829,829,829,829,829,829,829,829,829,829,829,829,828,828,828,828,828,829,828,829,829,829,830,830,831,830,831,830,830,830,830,830,831,831,832,832,833,833,833,833,834,834,835,2047,2047,2047,2047,2047,2047,2047,2047
